0.158941 0.454824 0.184613
-0.147790 -0.237674 -0.285013
-0.133306 0.252141 0.065996
0.056582 0.326351 -0.321366
-0.285586 -0.304755 -0.091201
-0.270161 -0.262201 -0.095075
0.500604 0.289146 0.030274
-0.165273 -0.220231 -0.102580
0.010720 -0.161374 0.116665
0.411192 0.198732 0.417419
0.023014 -0.220637 -0.371021
0.218757 0.415180 -0.277396
0.017891 0.496958 -0.045655
0.420354 -0.053536 0.013799
0.002350 0.406147 0.061655
-0.535764 -0.074512 -0.173719
0.270668 0.388254 -0.054637
0.149189 0.173336 -0.440994
0.065934 0.421015 -0.072618
-0.188236 -0.274386 -0.106225
0.190929 0.405911 0.176975
-0.013895 0.160108 -0.462477
0.185819 0.407895 0.274496
0.046410 0.001126 -0.505453
-0.130744 0.217133 -0.198882
-0.054561 0.276389 0.177363
0.414870 0.307394 -0.065839
0.160082 -0.036059 -0.300077
0.460673 0.220890 0.227154
-0.286051 -0.385705 -0.046881
0.111024 -0.180183 0.196336
-0.102387 -0.002710 -0.503009
0.066309 -0.192296 0.058805
0.041008 -0.116724 -0.188788
-0.588983 -0.196456 -0.209874
0.365134 0.331811 -0.331681
0.289570 0.107436 -0.215395
-0.041658 -0.097681 0.107959
-0.108228 0.241076 -0.006903
0.326771 0.021958 0.330284
0.351090 0.345924 -0.066350
-0.148217 0.165640 -0.301556
-0.005886 0.207241 -0.444697
0.173724 0.481750 -0.235215
-0.040207 -0.076308 0.176326
-0.204055 -0.023452 -0.388107
0.137432 0.218675 0.352352
0.285343 0.153210 -0.261164
0.160897 -0.093431 -0.429602
-0.179031 0.009934 -0.280706
0.210247 0.395081 0.143751
-0.112080 0.156965 -0.043499
0.014602 -0.145284 0.174886
0.380171 0.128916 -0.133888
0.070131 -0.050301 -0.553354
0.271338 -0.105907 -0.058357
-0.034430 -0.237158 -0.307042
0.237071 -0.175625 0.028854
-0.217506 -0.318449 -0.171159
0.461674 0.158087 0.354568
-0.009367 0.005498 -0.502812
0.489778 0.144279 -0.020391
-0.158125 -0.024921 -0.467450
0.380268 0.321616 -0.296939
0.023647 0.031025 0.298799
0.066674 0.427413 -0.090077
0.043268 -0.067995 -0.559482
0.227346 -0.097630 -0.119712
-0.147632 0.121314 -0.330758
-0.170182 0.047808 -0.370848
-0.064032 -0.227856 -0.282843
0.376057 0.369724 -0.184667
0.180594 0.476204 -0.204872
0.235598 0.386759 -0.261354
0.410445 0.047056 0.263573
0.303477 0.375734 -0.086635
-0.186413 0.026867 -0.335215
-0.066490 0.159628 0.219105
0.215254 -0.169999 -0.025309
0.084407 -0.201677 0.101528
0.003545 -0.161871 -0.269806
-0.002814 -0.046167 0.248903
-0.174933 -0.288025 -0.200217
0.012029 0.096624 0.289819
0.405086 -0.062163 0.110217
0.435170 0.115550 0.301042
-0.028020 0.256267 0.229384
0.075959 0.376074 -0.071320
-0.397436 -0.190595 -0.256194
0.206861 0.063266 -0.388720
0.264173 0.117793 -0.304053
0.355354 0.112362 -0.145454
0.187976 -0.205066 0.146221
-0.175909 -0.257256 -0.256614
0.298321 0.377584 -0.084918
0.079177 0.456672 -0.161903
0.324244 0.277067 -0.244505
0.335674 0.354462 0.190548
0.078081 -0.114561 -0.152050
0.499133 0.286690 -0.094026
0.233575 0.036390 -0.297156
0.304602 -0.120153 0.232306
-0.100809 0.147782 0.156162
0.144086 0.454611 -0.080091
-0.309635 -0.126666 -0.332707
0.170977 0.268375 -0.349378
0.049407 -0.163639 -0.024182
-0.029185 0.326473 -0.247889
0.274440 0.257706 0.405313
-0.389565 -0.129254 -0.302852
0.194919 0.368140 -0.224446
0.068700 0.096609 0.344993
0.423860 0.037408 -0.097626
0.490677 0.110202 0.041851
0.365830 0.334662 0.213014
-0.505599 -0.080032 -0.216253
-0.091436 -0.255863 -0.390359
-0.080726 0.050022 0.124857
-0.125732 0.039739 -0.065319
0.212693 -0.031204 0.347997
0.014130 -0.114338 -0.147507
0.003822 -0.126476 0.184985
-0.155304 -0.070949 -0.222216
0.037537 -0.067116 -0.558537
0.456222 0.115262 -0.079804
-0.191003 0.015394 -0.323416
0.031732 -0.117515 -0.165891
0.411404 0.328457 -0.123358
0.199286 0.358562 -0.218548
0.232297 0.452731 -0.263955
-0.056204 0.348156 0.042809
0.202282 0.022047 -0.341659
-0.056507 -0.086211 0.085703
0.318212 -0.004173 0.323325
0.092586 0.451483 0.147574
-0.100183 0.183449 -0.022563
0.472662 0.265274 0.189160
0.007055 0.341042 0.200615
0.106121 0.368811 0.270518
-0.139454 0.067237 -0.100118
-0.219755 -0.149249 -0.424159
0.010730 0.159325 -0.471720
0.236895 0.320767 0.308172
0.422501 0.100463 0.313752
0.441270 0.031849 -0.069982
-0.110762 0.301187 0.056574
0.109415 0.489293 0.081467
-0.232005 -0.233734 -0.072238
0.244197 0.433797 -0.186247
0.172767 0.300297 -0.285168
-0.054009 0.275088 -0.036374
-0.142411 0.196654 -0.240679
0.404899 0.346407 -0.239602
0.405300 0.274805 0.347461
-0.556987 -0.131732 -0.204657
-0.117405 0.168952 -0.077865
-0.068193 -0.258817 -0.405332
-0.193878 -0.144928 -0.465984
-0.233753 -0.219758 -0.184733
0.286220 -0.039795 -0.129694
0.123569 -0.051562 -0.394057
0.389812 0.336251 -0.135250
-0.246078 -0.243723 -0.069617
-0.054878 0.092158 -0.450034
-0.074270 -0.199643 -0.267609
0.014815 -0.198799 -0.339349
-0.354096 -0.118450 -0.308908
0.088416 -0.186153 -0.009424
0.106839 0.490029 0.091346
0.016917 -0.166962 0.103686
0.134488 0.369994 -0.232323
0.089228 -0.183530 -0.507501
-0.098696 0.249163 0.141262
0.306391 0.362579 0.269828
0.007388 -0.114020 -0.086109
-0.196924 -0.177947 -0.443367
-0.500340 -0.104115 -0.229260
-0.486822 -0.128486 -0.253879
0.428124 0.140719 -0.110690
0.184646 0.425321 0.261309
0.352903 0.206321 0.443942
0.363780 0.298788 0.357768
0.347262 0.361727 0.145923
-0.051645 0.333863 0.015011
0.020810 -0.224432 -0.489069
-0.167401 -0.222811 -0.303441
0.140604 -0.094561 -0.180182
0.099503 -0.180317 0.189188
-0.103978 0.155137 -0.002930
-0.030834 0.282732 -0.369456
-0.202186 -0.201558 -0.127005
0.279189 0.078324 -0.228749
0.113703 0.456706 0.011790
-0.186453 -0.057366 -0.257558
0.069651 -0.159236 -0.349172
0.450811 0.310939 -0.082156
0.180986 0.420644 -0.288268
-0.170702 -0.217777 -0.352784
0.200634 0.366161 0.289143
-0.168531 -0.276405 -0.080322
0.161535 -0.214447 0.105102
0.089892 -0.202674 0.109042
0.217819 -0.158087 -0.042381
0.115148 -0.163172 -0.067539
0.500285 0.260730 0.159085
-0.373320 -0.148964 -0.221351
0.206350 -0.185218 0.004280
-0.084091 0.147137 0.189120
0.265852 0.094174 -0.278248
-0.183727 -0.212255 -0.298548
0.213448 0.418745 -0.061341
0.365438 -0.109259 0.131807
0.158431 0.425070 0.121812
0.065701 0.137596 -0.473819
0.481272 0.306792 -0.075550
0.340333 0.246919 -0.156755
-0.247331 -0.105674 -0.266331
-0.260172 -0.088327 -0.285557
-0.045485 -0.084174 -0.036129
-0.106224 0.091358 -0.410565
-0.090402 -0.001890 0.049269
0.203191 0.417133 -0.024582
0.400219 -0.037421 -0.069764
-0.007993 0.391995 0.121519
0.417444 0.211332 -0.111796
0.079799 0.451859 -0.172957
0.323130 0.112565 -0.155470
0.083317 0.483216 -0.124044
0.103374 -0.071541 -0.292372
0.448059 0.264994 -0.172867
-0.245528 -0.276081 0.045244
0.167080 0.432964 -0.003739
0.492087 0.204216 0.114446
0.215665 -0.200517 0.119650
-0.292266 -0.375005 -0.050744
-0.339760 -0.335102 0.065651
0.331557 -0.053033 0.282803
-0.112621 0.165797 0.138799
0.060981 0.523264 -0.028806
0.009431 -0.125801 0.193775
0.413771 0.304004 0.274917
0.045684 0.264835 0.290989
0.211582 0.131927 0.376384
-0.075353 0.013651 0.127914
-0.504087 -0.106479 -0.227961
-0.205949 -0.068441 -0.407183
0.142680 -0.081238 -0.204699
-0.281274 -0.120952 -0.252844
0.486835 0.189816 0.124835
-0.104585 0.078676 -0.422277
0.079155 0.462934 -0.171554
-0.289068 -0.081225 -0.284472
0.028396 0.342422 -0.231067
0.087705 0.509006 -0.147042
-0.102669 0.271392 -0.179506
-0.214537 -0.309924 -0.184622
-0.201862 -0.032921 -0.402764
-0.084623 -0.068847 -0.517215
-0.003262 0.282590 -0.384875
-0.128627 0.230362 -0.230334
-0.136225 0.192804 0.071095
0.082507 0.384950 0.230044
-0.154576 0.108006 -0.302278
-0.034408 0.115697 0.243054
0.190575 0.415812 0.047066
0.426360 0.276265 -0.188125
-0.136061 -0.035283 -0.185175
0.079752 0.446102 -0.131894
-0.153375 0.145616 -0.172496
0.054015 0.182464 0.321268
0.106693 0.469881 -0.053373
-0.205235 -0.014017 -0.360994
0.215131 0.411683 -0.028745
0.372110 -0.100672 0.144409
-0.086650 0.234689 -0.099380
0.342716 0.274317 -0.222469
0.071663 0.290895 0.296021
-0.135671 -0.149331 -0.510334
0.146540 0.446060 -0.045441
0.110529 0.473821 0.144137
-0.108063 -0.010541 -0.501457
0.308972 0.142177 -0.198687
-0.151419 -0.260826 -0.231608
-0.130400 0.074554 -0.400236
0.473434 0.063311 0.089881
0.424392 0.281910 0.303013
0.008766 0.337297 -0.143362
0.208826 -0.089392 -0.146380
0.420367 0.172618 0.419648
0.227300 0.437635 -0.177301
0.267154 -0.155131 0.044864
0.080695 -0.046339 -0.547584
-0.107386 0.226109 -0.128487
0.379076 0.069464 -0.152092
-0.299738 -0.325308 -0.051921
0.489133 0.121244 0.099188
0.160538 0.357501 0.297175
-0.284332 -0.289009 0.060289
0.465582 0.068992 0.126238
0.429090 0.295495 0.248365
-0.132253 0.024245 -0.102061
0.375165 0.331056 -0.059160
0.410618 -0.053389 0.083387
0.059908 0.392787 -0.139377
-0.138050 0.208579 0.042559
0.352792 0.340677 -0.016835
0.336931 0.343041 0.061255
-0.207804 -0.028749 -0.314306
0.380492 0.334021 0.259017
0.027713 -0.107837 -0.549310
0.307224 0.138455 -0.177486
0.084561 -0.135925 0.250017
0.032269 0.490864 0.034107
-0.006402 -0.233851 -0.331678
0.408618 0.193226 0.421795
0.254211 0.262968 -0.261538
-0.130297 -0.231964 -0.428687
-0.415280 -0.052903 -0.245891
-0.123018 0.102340 -0.041284
0.239925 0.158866 0.372132
0.455445 0.302815 0.145605
0.472873 0.312488 -0.095004
0.450275 0.108985 -0.082398
0.247196 0.428135 -0.162852
0.387251 0.264329 0.382974
-0.053282 -0.243167 -0.462962
-0.094291 -0.028662 -0.072600
0.113833 -0.054373 -0.522272
-0.070884 0.252363 -0.377681
-0.441628 -0.053055 -0.249284
0.463632 0.134254 -0.074769
-0.032761 -0.148703 -0.531566
0.042095 0.228688 -0.439966
0.028769 0.344626 -0.258837
-0.032744 0.293545 -0.358074
-0.228693 -0.256002 -0.222898
-0.259141 -0.253206 -0.143126
0.249278 0.260832 0.367953
0.502943 0.174165 0.013074
0.247111 0.434737 -0.297574
0.313912 0.190021 -0.229918
0.028203 -0.179807 -0.323315
0.284589 -0.051457 0.315358
0.239514 0.006567 -0.231805
-0.133894 0.057515 -0.434722
0.295142 0.329348 0.330542
0.441692 -0.011929 0.031871
-0.009782 -0.019154 0.243423
-0.265256 -0.165351 -0.276074
-0.228457 -0.210582 -0.183773
-0.303216 -0.182065 -0.343729
0.387628 0.367954 -0.258268
0.254960 -0.148939 0.240131
-0.227986 -0.299642 -0.079477
0.003998 -0.214236 -0.503103
-0.556074 -0.098994 -0.185191
-0.532995 -0.157666 -0.288468
0.368899 0.380949 -0.339747
0.492535 0.119928 0.113342
0.181078 -0.210331 0.114466
0.496739 0.213651 0.051600
0.130645 0.466483 0.173321
0.204972 -0.206135 0.093039
0.361412 0.380757 -0.249613
0.001574 -0.112113 -0.150717
-0.290774 -0.298028 0.003570
0.180871 0.476675 -0.212891
-0.052504 -0.081507 -0.004285
0.416724 -0.013017 0.205638
-0.146557 -0.259682 -0.132775
0.096129 -0.172881 -0.045548
-0.027356 -0.269370 -0.348840
0.049442 0.385224 -0.016742
0.472418 0.046487 0.030120
0.199579 0.428298 0.236970
-0.110263 -0.104260 -0.211539
-0.131473 0.085004 -0.372213
-0.166705 0.026464 -0.272564
0.077354 0.400459 -0.079863
-0.276244 -0.298933 -0.120592
-0.111221 0.013550 -0.044608
0.319732 0.359355 0.212247
0.160749 0.073390 -0.433104
0.388590 0.208595 0.428490
0.312182 0.234383 -0.242356
0.187302 0.208318 0.366609
0.401893 0.199865 -0.119167
-0.033376 -0.004317 0.217071
0.418329 0.078103 0.273256
0.248398 0.388674 0.041816
0.413482 -0.050776 0.147849
-0.260468 -0.256002 -0.069950
0.202936 -0.034866 -0.223018
-0.229145 -0.180011 -0.373385
-0.005405 0.170518 -0.464110
0.014595 -0.152761 0.014753
0.460250 0.240531 0.267929
0.457816 0.323566 -0.163730
0.037715 -0.147220 -0.270921
-0.036765 -0.103667 0.125714
-0.123470 -0.155484 -0.515648
-0.365158 -0.136333 -0.221080
-0.013663 0.346772 0.174590
0.030852 -0.163123 0.164331
0.034613 0.297080 -0.365392
-0.325233 -0.381047 0.028336
-0.198306 -0.287945 -0.137494
0.143090 -0.060743 -0.477777
0.438730 0.283047 0.253051
0.434463 0.017861 0.190981
0.190441 -0.193304 0.187236
-0.307654 -0.302482 0.060524
0.278001 0.097555 -0.240108
-0.218627 -0.120513 -0.272618
0.150893 0.224884 -0.411546
-0.066884 -0.113565 -0.210571
0.138888 -0.024095 -0.359078
-0.228686 -0.214288 -0.194334
0.497630 0.251509 0.032997
0.039833 0.123419 0.318785
-0.569288 -0.165762 -0.265905
-0.067156 -0.204897 -0.273950
-0.080869 0.229151 -0.388645
0.276843 0.350446 -0.324788
0.448864 0.004512 0.132056
-0.119050 0.098069 -0.002824
0.195744 0.408833 0.088150
0.009596 -0.114650 -0.173454
0.062925 0.524419 -0.062505
0.332520 0.396297 -0.253400
-0.004713 -0.077411 0.227118
-0.129018 0.186929 -0.133504
0.003424 -0.116930 0.199191
-0.146227 0.132836 -0.130289
-0.091226 0.064850 0.086485
0.225635 0.440337 -0.092468
-0.301561 -0.078409 -0.295634
-0.068826 0.312211 -0.244612
-0.121896 -0.138072 -0.223163
0.007474 -0.150973 -0.257082
0.036595 0.465520 0.060339
-0.171197 -0.190931 -0.467997
-0.239945 -0.298074 0.052933
0.003914 -0.124825 -0.048405
-0.226425 -0.140117 -0.274568
0.028122 0.470352 0.040643
-0.205028 -0.196753 -0.250429
0.244982 0.401164 -0.059976
0.426615 0.235657 -0.144112
0.073584 0.515840 -0.025963
0.366927 0.310045 -0.270531
0.201286 -0.057958 -0.193262
-0.283319 -0.167552 -0.356994
-0.022845 -0.098304 -0.125770
-0.109369 0.272504 -0.238584
0.174983 0.109106 0.372223
0.448420 0.097966 -0.077040
0.340948 0.258327 -0.206097
0.254463 0.231576 0.397324
0.028528 0.482312 0.034921
0.289693 0.214444 0.438433
0.287829 0.213792 -0.253341
0.148014 -0.181663 -0.036454
0.061703 0.507035 -0.102720
-0.375646 -0.118526 -0.216029
-0.086232 0.071952 0.098138
0.379594 -0.014170 0.264709
0.364113 0.083682 -0.153278
-0.021221 0.319317 -0.290626
0.441868 0.179803 -0.098365
0.301823 0.030052 0.342751
-0.034889 0.366895 0.034933
0.496872 0.227031 0.171902
0.491123 0.116683 -0.001889
-0.159390 -0.206709 -0.127644
0.072608 0.414736 -0.124243
0.062355 -0.025341 -0.542978
0.493496 0.171739 0.097810
0.110569 -0.015716 -0.444519
0.407382 0.352035 -0.200088
0.183896 -0.162342 -0.064487
0.262084 0.309680 0.331394
0.173005 -0.116895 -0.128215
0.155533 0.439017 -0.005754
0.292602 0.339921 -0.331239
0.103054 -0.043344 0.328208
-0.446881 -0.081892 -0.203559
-0.049896 0.069802 -0.452197
-0.138737 0.125792 -0.105615
-0.060859 0.105354 0.179774
-0.078103 0.234360 -0.387576
0.197864 0.229976 0.362378
-0.105769 0.168249 0.006933
-0.448720 -0.124820 -0.195538
0.172309 -0.181343 0.210398
0.377508 0.175380 -0.124545
-0.165437 0.067252 -0.199703
-0.179510 -0.025841 -0.443324
0.472111 0.246751 -0.141176
0.141484 -0.073853 -0.487577
0.223307 -0.187355 0.186039
-0.108131 0.057567 0.029878
0.047753 0.468571 0.076553
0.465415 0.121927 0.220165
0.176519 0.473758 -0.153967
0.120701 -0.136918 0.264099
-0.469247 -0.158690 -0.203436
0.476430 0.193427 -0.044753
-0.082781 0.275618 -0.016429
-0.027199 0.250641 -0.399218
0.224013 0.434863 -0.145689
0.222682 -0.099745 -0.121486
-0.089438 0.311530 0.021115
-0.136061 0.008784 -0.476497
0.116286 -0.094356 -0.370983
0.165302 0.432087 0.014296
0.138328 0.498782 -0.208203
0.191596 -0.197729 0.031485
0.376505 0.252641 0.402540
0.218575 0.327991 0.312037
0.135483 0.495624 -0.162747
-0.489199 -0.141596 -0.186041
-0.004831 0.323811 -0.113193
-0.263502 -0.276810 -0.152085
0.283754 0.425252 -0.265962
0.276780 0.392192 -0.337093
0.307578 -0.082790 -0.048303
0.005028 -0.247873 -0.443728
0.463558 0.183647 0.344771
0.479927 0.229100 0.009426
0.492770 0.187153 0.097861
0.262480 0.291325 0.357039
-0.186989 -0.199349 -0.414459
-0.564920 -0.184230 -0.192923
0.079365 0.268610 -0.402725
0.064790 -0.124373 -0.273737
0.019557 0.393611 0.009062
0.042692 -0.052599 0.292827
-0.080245 0.312175 0.012878
0.480034 0.161074 0.161406
0.327187 0.177422 0.453118
0.060997 0.344879 0.256355
0.387240 0.069968 0.346641
0.016688 0.117340 -0.477162
-0.063058 0.085213 0.137022
0.207990 -0.195193 0.042255
-0.148808 -0.011691 -0.222155
-0.001914 -0.076358 0.231715
0.194017 0.432896 0.228965
0.312372 0.365132 0.169522
0.073109 0.395945 -0.089258
-0.115783 -0.246004 -0.307679
0.239767 0.038870 -0.265672
0.125586 -0.064916 0.323296
0.251059 0.396600 -0.045063
-0.168323 -0.155955 -0.217054
0.278620 0.179903 0.440557
0.213376 0.392205 0.155479
0.266112 0.427822 -0.320732
-0.154981 -0.208292 -0.130070
0.315556 0.301981 -0.280812
0.166621 0.033353 0.370614
0.311535 0.229334 0.436119
0.057308 0.186050 0.322937
-0.215747 -0.041519 -0.332749
0.064345 0.108976 -0.474006
-0.114827 0.163175 0.035059
-0.120176 -0.245253 -0.373057
0.446849 0.127585 -0.093738
0.160880 0.315821 -0.263094
0.256955 0.082549 -0.306461
0.372910 0.319722 -0.309831
0.276221 0.429967 -0.307933
0.460976 0.297466 0.102331
0.391335 0.348323 -0.149618
0.002679 0.141326 0.284766
0.211717 0.421371 -0.065226
0.283023 0.264882 0.406013
0.373525 0.344600 0.139017
-0.061848 -0.204845 -0.277596
0.090662 -0.203926 0.100684
0.064353 0.070589 -0.465439
-0.214852 -0.288751 -0.082135
0.258104 -0.146789 -0.017105
0.384968 0.324078 0.219293
0.223632 -0.145254 0.255861
0.494843 0.271146 -0.073845
-0.147456 -0.261080 -0.147628
-0.130295 0.219771 -0.221222
-0.215179 -0.087701 -0.282686
0.041403 -0.107262 -0.213833
0.164435 0.035933 -0.407043
0.268299 0.246248 0.408709
0.098580 0.143835 0.352313
-0.093014 0.257429 0.143123
0.376055 0.345042 0.129300
-0.464766 -0.102234 -0.191189
-0.179511 -0.042263 -0.453598
0.362534 0.123311 0.448922
0.187839 -0.200944 0.168747
0.291921 0.113690 -0.213628
0.303682 0.348077 -0.342628
-0.075797 0.127437 0.188525
-0.070254 -0.212557 -0.273388
0.224591 -0.000955 -0.241155
-0.067132 -0.066950 0.064139
0.123540 0.448543 0.197509
-0.060716 -0.054945 0.103599
-0.543573 -0.178423 -0.198919
0.072119 -0.115723 -0.189637
0.019870 0.461563 0.020626
-0.284145 -0.324580 0.056176
0.042273 0.169152 0.314962
0.060294 0.350158 -0.067745
-0.448340 -0.069191 -0.206831
0.481197 0.111926 0.145133
-0.303618 -0.301294 0.052921
0.221844 0.434634 -0.084210
-0.276301 -0.345768 -0.098462
0.259277 -0.136943 -0.029866
0.079827 0.454308 -0.177595
-0.022663 -0.172950 -0.273391
0.379572 0.293606 0.349334
-0.051092 0.166230 -0.442356
0.082923 -0.107553 0.281436
-0.245688 -0.358041 -0.078704
0.058191 -0.172764 -0.388452
0.308311 -0.048019 0.305544
0.143379 0.499198 -0.251745
0.474577 0.125486 0.181066
-0.008449 0.258918 0.245037
-0.095669 0.106906 -0.418633
0.229809 -0.134665 -0.069995
-0.175462 -0.169515 -0.186822
0.059675 0.478431 0.082931
-0.473492 -0.143853 -0.299922
0.104921 -0.094786 -0.528141
0.257340 -0.177416 0.169875
0.310870 -0.086535 -0.030002
-0.028651 0.126380 0.255508
0.028224 0.361046 -0.142304
0.217775 0.153381 -0.386777
0.434830 0.285548 0.085773
-0.293452 -0.344232 -0.068351
0.459111 0.005848 0.077747
-0.028172 0.275480 -0.067027
0.117234 -0.175568 0.207468
0.306200 -0.143712 0.117333
0.501568 0.151600 0.038957
0.199725 0.098564 -0.409207
-0.241119 -0.300823 -0.183710
-0.218891 -0.331163 -0.114162
-0.198840 -0.184179 -0.268489
0.417169 0.068773 0.269542
0.228880 0.203355 -0.347903
0.007692 0.248229 -0.420522
0.320560 0.395412 -0.121683
0.252769 0.371693 -0.295893
0.355089 0.313040 0.343447
0.391441 0.233991 0.408582
-0.144459 -0.253714 -0.143290
0.296222 0.374359 -0.048284
-0.011136 -0.188936 -0.525560
0.153897 -0.069122 -0.464826
-0.041153 -0.252663 -0.308930
0.002632 0.230516 -0.429249
0.124916 -0.112447 -0.386921
0.331923 -0.096307 0.235671
0.141709 -0.133849 -0.115544
0.358959 0.349065 0.084875
0.384604 0.330057 0.234557
0.026304 0.480813 -0.054597
0.075881 -0.107761 0.277158
0.428483 0.116682 0.276004
0.407544 0.169719 0.428011
-0.055954 -0.060042 0.113055
-0.068849 -0.056299 -0.048675
0.313755 0.407855 -0.226104
0.485687 0.232230 0.028173
-0.049688 -0.077222 -0.053106
-0.184402 0.001298 -0.285127
0.147026 -0.140957 -0.452207
0.441284 0.180216 0.393789
0.034859 0.038761 0.309362
-0.401078 -0.106504 -0.209441
0.116310 0.283896 0.328245
0.280109 0.394626 0.169431
0.118371 0.454492 0.010813
-0.248590 -0.175371 -0.366031
0.227333 0.176623 -0.367643
0.317192 0.360933 0.220254
0.326253 0.353951 0.000152
-0.023358 0.309636 -0.025247
-0.141265 0.087294 -0.103096
-0.087895 0.118400 0.113265
-0.067587 0.256395 -0.105363
0.220666 0.411683 -0.050612
0.118479 -0.029181 0.341832
0.132073 0.331048 0.314875
0.275067 0.182605 0.438483
0.236895 0.439113 -0.113106
0.079078 -0.114231 -0.285046
0.175413 -0.098239 -0.146700
0.467930 0.236498 -0.113780
0.253818 -0.177990 0.180178
0.056845 -0.131296 -0.271854
0.334627 -0.079820 -0.070512
0.268825 0.136543 0.398222
0.225212 0.391377 0.110269
-0.592869 -0.183480 -0.248171
0.499161 0.182190 0.007872
-0.226106 -0.211248 -0.197809
-0.304301 -0.179287 -0.346289
0.295118 -0.079792 0.289332
0.006284 -0.107221 -0.112772
-0.099057 0.134280 0.027312
0.311993 0.408623 -0.232144
0.439515 -0.022999 0.080105
0.475398 0.069649 0.007677
0.348517 0.004063 -0.166110
0.168935 -0.015303 -0.343321
0.025040 -0.169840 0.128212
-0.103953 0.223190 -0.360157
0.168950 0.423409 0.072124
0.439725 0.056559 -0.081078
-0.107107 0.132230 0.007960
0.233648 -0.045983 -0.181907
0.048194 0.336626 -0.050296
-0.150119 0.162006 -0.266709
-0.020509 0.051693 0.248513
0.005502 -0.142175 -0.000824
0.025037 0.425611 0.035857
0.462840 0.031352 0.102983
0.297695 0.379560 0.105049
0.158399 -0.159270 -0.076855
0.228634 0.120210 0.375164
-0.132925 -0.239856 -0.275852
-0.063055 -0.083432 -0.136046
0.426994 0.040515 -0.091643
0.197919 0.004532 -0.318117
-0.062209 -0.033915 0.158199
0.247403 0.372689 -0.280623
0.375805 0.175612 0.443207
-0.084588 0.271659 0.146965
0.454090 0.116942 0.340210
-0.247516 -0.162936 -0.281347
-0.217049 -0.200772 -0.160500
-0.233107 -0.113360 -0.269929
0.232870 -0.068359 -0.154403
0.084123 -0.095301 -0.276967
0.383164 -0.091385 0.142459
0.187562 0.071336 0.374304
-0.180644 0.032086 -0.406315
0.238331 0.035955 -0.267881
-0.255843 -0.349144 -0.114039
-0.037746 0.314738 -0.173429
0.364713 -0.100642 0.165963
-0.142170 0.113969 -0.348887
0.397440 0.081196 0.329525
-0.476667 -0.051754 -0.218590
0.108089 0.514223 -0.219606
-0.156301 0.085699 -0.152498
-0.090342 0.242332 0.161201
-0.106655 -0.083382 -0.200131
0.108086 -0.203865 0.128325
0.372868 -0.093969 0.091056
0.436983 0.229138 -0.111353
-0.490027 -0.184941 -0.239955
0.113309 0.260362 0.329503
0.156185 0.276556 0.335803
0.355304 0.154593 -0.133857
-0.179200 -0.252723 -0.029667
-0.099813 0.007230 -0.501128
-0.473635 -0.114862 -0.187149
-0.127580 0.110963 -0.079229
0.402551 0.305839 0.059027
-0.135257 -0.238633 -0.320029
0.185456 0.316180 -0.225515
-0.402165 -0.157573 -0.328389
0.200291 0.048597 0.372126
0.213370 -0.001789 0.360385
-0.011999 0.321105 -0.295396
0.274334 -0.164358 0.190092
-0.192950 -0.002536 -0.298469
0.447604 0.225199 0.349047
0.335719 0.346978 0.020559
-0.119067 0.157697 0.081941
-0.151862 0.131126 -0.156296
0.015113 0.297171 -0.362703
-0.081555 0.245649 0.171867
-0.124657 -0.230687 -0.442018
-0.059903 0.099084 0.165403
0.110004 -0.171511 -0.052839
0.174276 -0.176575 -0.043026
0.441622 0.289052 0.215135
0.281008 0.103796 -0.242654
-0.063803 -0.003284 -0.517670
0.160124 0.286787 0.334935
-0.241267 -0.263278 -0.201803
-0.154562 -0.265333 -0.208642
0.129350 0.462640 -0.308461
-0.187914 0.021407 -0.374861
0.168575 0.485394 -0.304347
0.305368 -0.143391 0.107893
0.182811 -0.113205 0.292038
0.153077 -0.079090 -0.419124
0.007013 0.264733 0.254104
-0.107124 -0.199012 -0.236155
0.359620 0.035558 0.312901
-0.310289 -0.334668 -0.024354
0.107859 0.482139 0.041751
-0.112310 0.193014 0.143703
0.477342 0.060329 0.045947
-0.015311 -0.155993 -0.256059
0.043622 0.376422 -0.140057
0.297301 0.148724 -0.234964
-0.375784 -0.063070 -0.264418
0.401912 0.318402 -0.110234
-0.012246 0.300184 -0.083402
-0.069846 -0.189103 -0.517086
0.354946 -0.102874 0.047861
-0.251376 -0.125661 -0.263284
0.081855 0.464219 -0.241146
0.388627 -0.073179 0.178119
-0.026262 0.277647 -0.066080
0.337491 0.242436 -0.174473
-0.095403 0.081637 0.061940
0.390905 0.244809 -0.150034
-0.528166 -0.189247 -0.247253
-0.055011 0.304565 -0.308938
0.198374 0.459708 -0.110500
-0.093504 0.145213 -0.414024
0.132678 -0.088749 -0.196896
0.498447 0.187991 0.008485
-0.000816 0.394441 0.032735
-0.302066 -0.351503 -0.048055
0.009595 -0.109228 -0.204850
0.357893 0.302556 0.357419
0.209654 0.463536 -0.286240
-0.108589 0.079517 0.030616
0.298790 -0.057456 -0.105759
-0.443351 -0.122501 -0.272155
0.113826 0.512728 -0.234688
-0.240082 -0.226153 -0.169721
0.484860 0.257865 -0.130190
0.029093 -0.162379 -0.285263
0.070895 -0.001532 -0.492774
-0.008769 0.312769 0.208394
0.434200 -0.026103 0.070648
0.304464 0.145115 -0.214794
-0.502912 -0.148702 -0.290754
0.492923 0.169756 0.103063
0.018058 0.031545 0.293866
0.053056 -0.016141 -0.535756
-0.152370 0.068963 -0.359750
0.011642 -0.144862 0.170840
-0.191596 0.004983 -0.413759
0.050487 0.388438 0.200080
0.254130 0.387343 0.026054
-0.125954 0.012475 -0.482926
0.138733 0.067326 -0.440576
-0.188628 0.004232 -0.420540
0.444404 0.297005 -0.007929
-0.259272 -0.319663 -0.016663
0.360132 0.187384 -0.129066
-0.121720 0.209312 -0.142859
-0.118063 0.079189 -0.000663
0.145532 0.424659 0.245228
0.107199 0.305861 -0.345167
0.459084 0.174043 0.358559
-0.029649 0.298435 -0.130438
0.495314 0.134752 0.125153
-0.154260 0.008764 -0.176876
-0.181362 -0.050518 -0.452355
0.238013 -0.141245 -0.050825
-0.112875 -0.146919 -0.225473
-0.229185 -0.173687 -0.297977
-0.017243 0.081215 0.244123
0.081864 0.493012 -0.257800
0.495894 0.189820 0.001377
-0.263818 -0.348120 -0.045410
0.364876 0.345228 0.085353
-0.063611 -0.079941 0.064056
-0.056532 -0.032725 0.172737
0.007208 0.323599 0.215156
0.110366 0.391897 0.241489
0.437341 0.283258 0.260095
-0.050722 0.332775 0.012054
0.143999 -0.135128 -0.423205
-0.306675 -0.077381 -0.284272
0.059701 0.253980 0.308542
0.210643 0.144656 -0.398249
-0.569105 -0.101298 -0.165254
0.172239 0.327724 -0.220416
0.012602 0.260656 -0.409927
0.404629 0.032968 -0.127345
0.035283 0.272729 -0.397622
-0.272542 -0.284445 0.061905
0.370358 0.201930 0.439809
-0.172239 -0.217035 -0.361608
0.297531 -0.145522 0.102426
0.059268 0.407845 -0.026179
-0.334821 -0.190232 -0.328235
-0.082135 0.280967 -0.311822
-0.295437 -0.391638 -0.016431
0.498080 0.190008 0.008659
-0.067946 0.270298 -0.130028
0.190130 0.286140 -0.284740
-0.127406 0.235193 -0.235868
0.109914 0.512760 -0.213114
-0.150128 -0.260907 -0.150343
-0.100590 0.251414 -0.142615
-0.124377 0.051347 -0.456561
0.042928 -0.117530 -0.122224
-0.300543 -0.169601 -0.352465
-0.209652 -0.286984 -0.029770
-0.117621 0.118079 -0.018955
-0.121494 0.182473 -0.111447
0.340272 0.348972 -0.035120
0.106975 -0.074617 -0.322782
0.071150 -0.172678 0.184244
0.199471 0.101040 0.376138
-0.145328 0.181683 -0.303652
0.296551 0.144986 -0.233137
0.086596 -0.198815 -0.469990
-0.054268 -0.007176 -0.520851
0.434886 -0.027924 0.003648
0.464775 0.300277 0.130074
-0.043342 0.283758 -0.113503
-0.160403 0.007818 -0.446506
0.112635 -0.036387 -0.391608
-0.024397 0.272080 0.220000
0.305886 -0.067102 -0.091969
0.393946 -0.004283 -0.117204
-0.126217 0.237722 -0.242979
0.338638 -0.042496 0.283687
0.270342 0.343990 0.292461
0.015736 0.218320 0.277375
0.207462 0.224422 -0.361622
0.453813 0.301897 0.159548
0.259997 0.353921 -0.292817
0.126301 0.451939 0.070126
0.076707 -0.094641 -0.236679
-0.021016 0.266390 0.229840
0.447352 0.301163 0.116894
-0.240103 -0.302378 0.003433
0.032972 -0.049418 -0.554694
0.208499 0.055745 0.370202
0.452182 0.326485 -0.161051
-0.124131 -0.184922 -0.511081
-0.409986 -0.066879 -0.226039
0.299955 0.417340 -0.290572
0.426696 -0.007590 0.180778
-0.183818 -0.137420 -0.477902
-0.190424 -0.284090 -0.009710
-0.438115 -0.149639 -0.319383
-0.148310 -0.211740 -0.136527
-0.091965 0.083457 0.080219
0.483011 0.307172 -0.097411
0.227206 0.272851 0.340002
0.045680 -0.010725 -0.530245
0.280167 0.047713 -0.182298
0.251004 0.293301 0.333542
-0.054352 0.314218 -0.004829
0.052330 -0.184660 0.059161
-0.218237 -0.191480 -0.360734
-0.441226 -0.193524 -0.291013
-0.464490 -0.105480 -0.250535
0.253941 0.218150 0.399475
-0.344337 -0.127099 -0.227998
0.023592 0.533308 -0.007196
0.244358 -0.156403 -0.019201
0.294076 0.317249 0.349431
0.422319 0.083064 0.345852
0.106180 0.205470 0.341573
0.208854 -0.186491 0.017663
-0.293309 -0.299004 -0.023223
-0.153734 0.136728 -0.176327
0.019596 0.302626 0.243042
0.292500 0.421894 -0.300888
0.065677 -0.123057 -0.114546
0.121453 0.258531 -0.395116
0.011730 0.407989 0.032878
0.298202 0.164805 0.446817
0.299317 0.417669 -0.337510
0.374680 0.301877 -0.208612
-0.066763 -0.034718 -0.525203
0.338605 0.314138 -0.321399
-0.456536 -0.052585 -0.217896
0.154110 0.311657 -0.289599
0.111491 0.334836 -0.251290
0.124708 0.037478 -0.431763
-0.101941 0.198819 0.160296
0.076401 0.092886 0.350674
-0.019363 0.174745 -0.456626
0.514659 0.266920 0.062862
-0.163493 -0.184333 -0.488575
-0.031003 0.293994 -0.358350
-0.130998 0.128297 -0.092436
0.335757 0.042515 -0.173506
0.251957 -0.056119 -0.152225
-0.127477 0.010667 -0.101228
0.224414 0.437316 -0.168231
-0.224749 -0.293705 -0.020680
-0.299756 -0.094477 -0.253269
-0.119912 0.268842 0.090789
0.325967 0.311485 -0.313596
0.118946 0.460518 -0.300340
0.307335 0.260115 -0.249661
0.273053 0.345036 -0.309146
-0.092705 -0.002231 0.039343
0.102070 0.463630 -0.000485
-0.016141 0.319021 -0.021106
0.012003 -0.246105 -0.383807
-0.014355 -0.162850 -0.265011
0.385060 -0.036712 0.234087
0.077093 -0.131054 0.251416
-0.218802 -0.252634 -0.237526
-0.013060 -0.192452 -0.523091
0.428300 -0.012391 0.163063
0.366948 0.258118 -0.164663
0.433448 0.291342 0.024545
0.355084 0.335135 0.034447
0.281433 0.416437 -0.108913
0.248658 -0.088065 0.300310
-0.051840 0.356346 0.052290
-0.210675 -0.024479 -0.347420
0.218880 0.412948 -0.053552
-0.137685 0.209121 0.039958
0.387682 -0.084314 0.148756
0.040758 0.522649 0.027643
-0.079218 -0.043880 -0.050122
0.214158 -0.108439 -0.117568
0.179710 -0.096620 -0.147536
0.028690 0.527289 -0.065864
-0.124332 -0.223226 -0.460439
0.270918 0.049637 -0.218747
-0.287218 -0.111918 -0.342346
0.054737 -0.112255 0.258259
-0.282794 -0.291848 -0.091975
0.104024 -0.035731 0.332847
0.374300 0.352327 -0.339636
-0.275622 -0.086169 -0.280860
0.077634 0.513459 -0.027503
0.070063 0.376317 -0.080374
0.341851 -0.109558 0.197740
-0.014589 0.340181 0.179557
0.117577 0.323276 -0.307840
-0.212842 -0.128408 -0.420992
-0.047310 0.215261 0.221484
-0.337471 -0.191774 -0.325517
0.455632 0.243928 0.248936
0.428866 0.170557 0.413309
-0.178437 -0.021786 -0.260289
0.139013 0.366031 -0.232207
-0.076000 -0.039860 0.037914
0.043892 -0.038841 0.299681
0.426655 0.120340 -0.110557
0.004382 -0.157025 0.074677
-0.596611 -0.158835 -0.147719
0.029984 0.354638 -0.022870
0.175918 0.475517 -0.166846
0.227121 -0.189183 0.052900
0.435093 0.326028 -0.122929
-0.604790 -0.164314 -0.184474
-0.269256 -0.302297 -0.141093
-0.154143 0.105508 -0.152506
0.253992 0.068544 -0.308456
-0.027341 -0.173353 -0.271011
0.378703 0.333773 0.185207
-0.165704 0.096564 -0.214182
0.277814 0.362894 0.268746
0.396882 0.340258 -0.292018
-0.185599 -0.138714 -0.257925
0.458012 0.217465 0.250099
0.369268 0.193245 0.442308
-0.035778 -0.149451 -0.241669
0.133657 0.444635 0.040910
-0.045695 0.170852 -0.442560
0.108802 -0.148900 -0.086069
0.131747 -0.036667 -0.440587
-0.462425 -0.181867 -0.232731
-0.121083 0.125474 -0.048932
-0.111916 0.151267 0.069542
-0.111389 0.269449 -0.238699
0.323310 0.358752 0.212330
0.505180 0.164424 0.055733
0.162090 -0.149090 -0.090803
-0.077038 0.073557 -0.440258
-0.036849 -0.003566 0.212617
0.393604 0.303335 0.319517
0.160266 0.325505 -0.228211
-0.210048 -0.285489 -0.083047
0.255943 0.141766 0.374120
0.252006 0.403630 -0.305475
0.389478 0.080239 0.306794
0.282275 0.381429 -0.050386
0.334860 -0.091109 -0.029623
-0.081093 0.265901 0.157531
-0.018676 -0.001890 0.232600
0.021034 -0.159421 -0.275472
0.039214 0.070705 0.318578
-0.039250 0.310617 -0.319394
0.397555 0.089646 0.304056
0.134976 -0.118964 -0.136370
0.284180 0.365382 0.262767
-0.404606 -0.092552 -0.277536
-0.066222 0.118294 0.196258
0.162303 0.437930 -0.030146
-0.037069 0.327637 -0.216837
0.232725 0.113178 -0.372090
0.390034 0.334180 -0.133203
-0.185979 -0.291658 -0.208014
-0.137161 0.198689 -0.215700
0.274161 0.393983 0.207104
-0.458429 -0.185375 -0.297010
0.317260 0.167471 -0.180698
0.012450 -0.143424 -0.013002
-0.118226 0.200371 0.005643
-0.254036 -0.308977 0.043169
-0.000806 0.361406 0.170036
0.204527 -0.165635 -0.042529
-0.001336 0.048368 0.277794
0.414516 0.065650 0.270641
0.322073 0.110374 0.446671
0.307217 0.048079 0.346956
0.098243 -0.085560 -0.247313
-0.091136 0.131557 0.158226
-0.037913 -0.086463 0.160220
-0.131695 0.151044 -0.361120
0.078125 -0.112339 -0.204327
0.004867 0.410198 0.068687
0.251513 0.096747 0.373806
-0.054604 0.112040 0.207537
0.207170 0.277327 -0.269148
-0.095739 -0.223929 -0.480079
0.016575 0.330889 -0.097528
-0.079333 -0.118490 -0.505512
0.075177 0.420650 -0.126863
-0.132512 -0.236463 -0.203417
0.259999 0.060229 0.365816
-0.096160 -0.058358 -0.122688
0.439159 0.036047 0.180197
-0.036080 0.236857 0.228491
0.129187 0.020282 0.359421
0.283690 -0.162801 0.162137
0.487341 0.139570 -0.018784
0.224892 -0.134009 -0.074644
0.409653 0.313323 -0.204084
-0.141161 -0.076439 -0.213151
-0.058137 -0.162838 -0.246795
0.246161 -0.081375 -0.120455
-0.149873 0.051848 -0.424213
0.505158 0.168788 0.045073
0.423076 0.053504 -0.102569
-0.411017 -0.176293 -0.320290
0.163823 -0.032436 -0.301152
0.269527 0.229633 -0.261099
-0.125645 0.052278 -0.059164
-0.084330 0.103102 -0.428790
-0.117136 0.115820 -0.008618
0.355608 0.358294 -0.139543
0.049921 -0.225146 -0.426875
0.279172 0.318575 -0.273191
-0.007907 0.041248 0.267176
-0.580462 -0.176715 -0.168317
-0.206135 -0.165497 -0.442383
-0.053777 -0.125310 -0.515002
0.101745 0.045355 -0.445378
-0.053161 0.285214 -0.137084
0.113652 -0.171112 -0.468865
-0.050820 0.309882 -0.177774
0.026617 0.394808 0.163448
0.390342 0.019498 0.272102
0.074982 0.425537 -0.103946
0.112936 -0.104968 -0.362043
0.081145 -0.028486 -0.536829
0.114077 0.332442 -0.260239
-0.205836 -0.028497 -0.380587
0.129246 0.095346 0.373093
0.326501 -0.132101 0.084307
-0.344490 -0.080380 -0.296168
-0.183304 0.019858 -0.304031
-0.217048 -0.209353 -0.226802
0.145574 0.463020 0.123037
0.475365 0.183320 0.304501
0.060580 0.435936 0.115225
0.414042 0.306168 -0.040327
-0.213151 -0.142121 -0.275907
0.471923 0.064064 0.006620
0.108202 -0.120206 -0.356998
0.464636 0.071534 -0.033737
0.028099 0.255147 0.281731
0.347267 0.014835 -0.169951
-0.123677 0.104430 -0.387147
0.098826 -0.115998 -0.318217
-0.041719 0.213572 -0.431526
0.103049 -0.158332 -0.410896
-0.094914 -0.017002 -0.022309
0.492889 0.269878 -0.087966
0.231791 0.240863 0.356816
-0.300687 -0.360889 0.015664
0.423744 0.010779 0.211662
0.346516 0.070843 0.357036
0.371646 0.336189 0.273873
0.359937 0.184578 0.446384
0.052740 -0.208233 -0.409755
0.208027 -0.127071 -0.094997
0.131953 0.504051 -0.239623
0.151083 0.059691 -0.432774
0.031653 0.340623 -0.204462
0.310020 0.402025 -0.123269
0.157392 -0.092658 -0.470024
0.438452 0.122645 0.391040
0.240937 0.013285 0.358092
0.071498 0.255659 -0.411259
0.354371 0.314859 0.340910
0.051307 0.324895 -0.324484
-0.000433 0.168590 0.280034
-0.040925 -0.025134 0.199657
-0.180600 -0.158283 -0.488287
-0.050558 0.162533 -0.444645
0.321641 -0.130638 0.172955
-0.010661 0.323967 -0.020326
-0.088879 0.228613 0.175919
0.098094 0.250657 0.321530
-0.027842 0.055174 0.225165
-0.065211 0.255813 -0.041082
0.216621 0.118425 -0.395524
-0.108444 0.243270 -0.006269
-0.182370 -0.267240 -0.005135
-0.507918 -0.174198 -0.210437
-0.065516 -0.042040 0.102820
0.096260 0.251172 0.320520
-0.078212 0.114475 0.153387
-0.210040 -0.191727 -0.323379
-0.090447 -0.255986 -0.316889
-0.240735 -0.302885 0.013941
-0.191710 -0.269774 0.010362
0.426701 0.278180 -0.189479
0.327599 0.356867 0.196614
0.350167 0.059107 0.329996
0.392509 0.323383 -0.110182
-0.113787 -0.236108 -0.439981
0.490257 0.090930 0.019518
0.142607 0.030913 0.367929
0.020134 0.529946 -0.021814
0.134721 0.441894 0.071593
-0.416962 -0.060274 -0.228986
0.022177 0.533539 -0.009251
0.442331 0.096561 -0.082267
0.204868 0.127988 0.376126
0.079828 0.490386 -0.245446
-0.043428 -0.101937 -0.189894
0.313782 -0.116789 0.038716
0.010612 -0.029414 0.264298
-0.246204 -0.269208 0.006373
0.137406 -0.129425 -0.487215
0.078759 0.481010 -0.239500
0.380686 0.325666 -0.027241
0.061153 0.524682 -0.055489
0.418933 0.321238 0.162904
-0.170834 -0.264495 -0.148560
-0.004969 0.346724 0.182406
0.387791 0.354161 -0.155373
-0.034232 -0.216511 -0.298635
0.169654 0.229660 -0.395135
0.302031 0.078698 0.360333
0.117103 -0.025194 -0.479937
0.424888 0.218683 0.391402
-0.198954 -0.178832 -0.277799
0.079896 0.446697 -0.166364
-0.003178 0.123418 -0.473219
-0.072897 0.008638 0.130718
-0.039788 0.324039 -0.004957
0.208507 0.263862 0.346097
0.165607 0.211437 -0.412084
0.441830 0.097585 0.349825
-0.477779 -0.142654 -0.290030
0.039082 -0.174012 0.039550
0.432254 0.088890 0.351436
-0.590246 -0.164275 -0.210727
0.068466 0.471056 -0.109966
-0.159164 0.025229 -0.244776
-0.488960 -0.130344 -0.183569
0.000542 -0.075879 0.235715
0.245965 0.397686 -0.036074
-0.159505 -0.242967 -0.077646
0.141209 0.167495 -0.447594
-0.087909 0.281970 -0.172633
0.346687 0.345465 -0.035722
-0.132252 -0.156652 -0.218195
0.285025 0.338967 -0.322144
-0.016341 0.326800 -0.015499
0.125193 0.509016 -0.265983
-0.092440 0.190518 -0.400108
0.396945 0.325703 0.243798
0.115886 -0.091028 -0.369389
0.198998 0.364776 -0.222111
0.013883 0.481900 0.007404
0.015069 -0.227863 -0.485601
0.367747 -0.070859 0.230504
0.343137 0.367801 0.132504
-0.176914 -0.146308 -0.241515
0.292779 0.407160 -0.096209
0.338536 0.251998 -0.204215
0.148119 0.099931 -0.445918
0.099678 0.177498 -0.458423
0.098652 0.388956 0.235039
0.447704 0.107010 0.357589
0.119146 0.012977 0.352790
0.235265 0.385509 0.147880
-0.132152 -0.239976 -0.328651
0.067455 -0.082886 -0.555351
0.175795 -0.052183 -0.230877
0.258980 0.070639 -0.296239
0.397676 0.008769 -0.125307
0.007702 -0.163149 -0.273370
0.204621 -0.202506 0.056664
0.147650 0.497979 -0.280239
-0.294543 -0.304392 -0.043791
-0.290270 -0.303365 -0.066050
0.428973 0.110647 0.303896
-0.267912 -0.273141 -0.134214
0.176261 0.482166 -0.270643
0.110490 0.506312 -0.137126
0.490084 0.160649 0.137818
0.416839 0.078097 0.383619
0.206316 0.011054 -0.315708
0.446116 -0.006245 0.036465
0.449684 0.263506 0.265875
0.327614 0.364038 -0.099487
0.262548 -0.014189 0.340866
0.161083 0.436533 -0.008077
0.352481 -0.119460 0.122733
0.375776 0.329855 0.081667
0.315451 -0.002581 -0.165633
0.262246 0.380583 0.054811
0.388455 -0.059771 -0.059641
-0.001188 -0.129772 -0.230159
0.186017 -0.205146 0.146646
-0.245000 -0.113115 -0.362755
-0.140810 0.071947 -0.394367
0.375664 0.315218 0.320691
0.463395 0.034290 0.006064
0.043750 0.432710 -0.045435
0.403091 0.067923 0.370914
0.117363 0.184089 -0.452636
0.002425 -0.241245 -0.464663
0.457588 0.282059 -0.181446
0.142103 0.260390 0.341031
0.214638 0.260531 0.347931
0.258394 0.195585 -0.293607
0.093443 -0.008476 -0.475536
0.354050 -0.056210 0.259017
0.294853 0.324859 0.337837
0.083409 0.492911 -0.122423
-0.129437 0.182818 0.040516
0.223682 0.403067 0.021603
-0.295564 -0.357759 -0.057476
-0.076746 -0.084405 -0.180155
-0.056079 -0.255413 -0.304810
0.282249 0.381740 -0.053040
-0.222021 -0.088091 -0.289172
0.049262 0.149121 -0.475656
0.114308 -0.049291 -0.381259
0.096633 0.271671 -0.393319
0.315464 0.410106 -0.308326
0.255587 0.195298 0.401031
0.383575 0.362741 -0.335328
0.217968 0.386229 0.274934
0.122557 0.032191 -0.429545
0.135314 -0.110360 -0.148836
-0.149192 0.168312 -0.245050
-0.235519 -0.169189 -0.291021
0.281790 0.392835 0.136019
0.365788 0.329488 0.031551
0.266894 0.385172 0.128168
0.173139 0.045938 -0.407025
0.076637 0.473592 0.104206
-0.350444 -0.132188 -0.225895
0.488030 0.192786 0.119197
0.389668 -0.022401 0.239321
0.041596 0.502749 0.040985
-0.160541 0.059613 -0.270488
-0.155567 -0.090280 -0.470082
0.333542 0.253739 -0.222762
0.407181 0.231106 0.398345
-0.329241 -0.077527 -0.292689
0.362793 0.357105 0.113748
0.080530 -0.094579 -0.235350
0.068906 0.504135 0.070920
0.325871 0.056534 0.342789
0.181368 0.351441 0.302319
-0.088725 -0.049730 -0.099895
-0.094975 0.081804 -0.425184
0.469621 0.153478 0.326244
-0.390631 -0.083042 -0.287175
0.036296 -0.123959 -0.096645
-0.202474 -0.197780 -0.334630
-0.016236 0.155376 0.270575
-0.126867 0.270593 0.044482
0.290080 0.401730 -0.135450
0.337416 0.393273 -0.355530
0.289920 0.381421 0.236701
0.480586 0.298423 0.047751
-0.145553 0.114953 -0.125283
-0.128330 0.209236 0.017299
0.091157 0.513058 -0.118454
0.270594 0.381890 0.000475
-0.133169 0.142591 -0.105482
-0.408506 -0.138435 -0.316471
0.041464 -0.018598 -0.538748
0.385372 0.367754 -0.234942
-0.116075 -0.175146 -0.517801
0.183958 0.262800 0.347658
-0.214334 -0.041887 -0.324109
0.336157 -0.096665 0.018386
0.332346 0.372327 0.119896
-0.504677 -0.147794 -0.282077
0.380910 0.337795 0.176378
-0.067434 -0.068744 -0.105474
0.331708 0.357442 -0.350044
0.199889 0.462985 -0.167433
0.165439 0.034108 0.370671
0.085999 -0.025277 0.333853
0.111478 -0.209015 0.069696
0.407505 -0.016574 -0.081410
0.415135 0.065802 -0.115644
0.431531 0.264969 -0.178986
0.010955 -0.119104 0.206636
-0.022314 0.290614 0.199787
0.314063 0.153895 -0.154390
-0.063776 0.269265 -0.121041
-0.176792 -0.055153 -0.457651
-0.529645 -0.149186 -0.251423
-0.122229 0.163629 0.095894
0.031803 -0.149086 -0.035031
-0.133942 0.210486 -0.219778
0.203371 -0.065183 -0.182447
0.267969 -0.115917 -0.053929
0.217744 -0.003891 0.359042
0.089938 -0.179285 -0.427633
0.480106 0.192323 0.167889
0.425376 -0.005863 0.191313
0.075268 -0.196893 0.112074
-0.383012 -0.063063 -0.250472
0.152663 0.486564 -0.161768
-0.035833 -0.122211 -0.523956
0.039531 -0.158397 -0.286995
-0.198191 -0.024102 -0.288511
-0.203452 -0.010203 -0.363779
0.127116 0.287348 0.328718
0.361619 0.177277 -0.128642
0.321381 -0.029129 -0.150740
0.055033 0.231494 0.310291
0.131023 0.317978 -0.310414
0.138174 0.469859 0.125052
-0.067043 0.097582 0.130954
0.161451 0.104505 0.371754
-0.028312 0.296305 -0.094011
0.161097 0.468143 -0.101280
0.093901 0.473548 0.124310
0.074368 0.334859 0.278109
-0.151735 0.069471 -0.345258
0.019369 0.067605 0.299752
-0.481447 -0.104230 -0.240814
-0.025973 0.312001 -0.155356
0.367710 0.137034 0.449779
-0.568409 -0.188272 -0.264552
0.191882 0.435019 0.220160
0.230446 0.401191 0.005045
0.030820 -0.068122 -0.556620
0.419265 0.167196 -0.114833
0.469360 0.315680 -0.121427
0.362574 0.353573 -0.344011
0.087437 -0.189685 0.005153
0.269558 0.185602 -0.273603
-0.158268 -0.119345 -0.482792
0.372958 0.332578 0.233396
0.101622 -0.072506 -0.300071
0.161247 0.489166 -0.248658
0.037443 -0.044078 0.291615
0.311593 0.356437 0.051780
0.261930 0.069924 0.367228
0.167302 0.430561 0.020146
-0.131402 -0.167809 -0.208344
0.035979 0.431276 0.102578
0.494116 0.294007 0.017391
0.079049 -0.149940 -0.339650
0.287152 -0.131309 0.234931
0.147803 -0.215386 0.086704
0.382201 0.366294 -0.181438
0.442498 0.077812 -0.074946
0.339798 0.350635 0.208751
0.328003 0.361502 -0.092414
0.383510 0.325522 -0.055014
-0.122434 0.089760 -0.034729
-0.097253 0.093196 -0.418976
0.339949 -0.073018 0.258760
0.207376 -0.175889 -0.020002
0.264040 0.274610 0.381894
0.379866 0.319641 0.308971
0.329519 0.356165 -0.044467
-0.153159 0.004777 -0.174119
-0.116573 0.193495 0.135111
0.158054 0.018553 0.365330
-0.274677 -0.341803 -0.103697
0.340741 0.005469 0.313576
0.120798 -0.062840 -0.510190
-0.117103 -0.246835 -0.368251
0.384818 0.042163 0.291856
-0.058155 0.332369 0.020734
-0.420574 -0.101482 -0.205501
0.371888 0.336185 0.273181
0.107973 0.489947 0.085063
-0.109538 0.090030 0.023815
0.178213 0.111462 0.372573
0.008196 -0.030574 -0.538658
0.473952 0.158198 0.187676
0.006363 -0.241016 -0.463777
0.401271 0.222813 0.410176
0.427730 0.041410 -0.090149
-0.069007 0.090421 0.124942
-0.067867 0.297182 -0.171036
-0.447574 -0.089915 -0.200695
0.041849 -0.179369 0.128341
0.103327 0.489707 -0.059721
0.146122 0.434449 0.075038
0.213452 0.318586 -0.232999
0.234009 0.406818 0.252146
-0.135058 0.229069 0.028335
-0.102981 0.197996 -0.386153
-0.352297 -0.115934 -0.309251
0.019833 0.403042 0.015447
-0.377294 -0.098483 -0.295325
0.006682 0.307704 0.225887
0.015336 0.005495 0.281401
0.173690 0.481781 -0.235278
0.242681 0.199365 -0.326971
-0.034696 0.341969 0.147928
0.407188 0.192407 -0.117725
-0.165550 -0.235507 -0.284479
0.241015 0.357496 0.278255
0.019981 -0.119807 0.216226
0.246899 0.089923 -0.334240
0.137691 0.493516 -0.146723
0.073674 0.506936 0.060693
-0.043386 0.053378 -0.463759
0.413618 0.305006 -0.020192
0.066722 -0.011940 0.328871
-0.040341 0.056768 0.187640
-0.069752 0.294702 -0.168669
0.151769 -0.135509 -0.445459
0.332458 0.102601 -0.155797
0.138418 0.440031 0.062175
0.077099 -0.205084 -0.475287
0.449007 0.276935 0.221307
-0.196468 -0.175163 -0.449519
-0.055019 -0.125499 -0.514340
0.448559 0.147690 0.276645
-0.098926 -0.018323 -0.068454
0.322629 0.189767 -0.175959
0.447347 0.014655 0.144517
-0.500869 -0.139222 -0.257036
-0.138909 0.231316 0.055372
0.486424 0.104772 -0.017321
0.465348 0.169912 0.342377
0.375760 -0.049541 0.238018
0.354030 -0.083382 -0.049745
0.248278 0.404767 0.192730
0.428695 -0.036348 0.107824
-0.120939 0.213265 0.005153
0.403541 -0.053668 -0.030460
0.109289 0.460521 0.162185
0.041146 0.306431 -0.353224
0.280490 0.071018 -0.186375
0.373858 -0.087580 0.033063
0.098706 0.451717 -0.272352
-0.441513 -0.132823 -0.198049
0.278505 0.185064 -0.264930
-0.159587 -0.132068 -0.491268
0.069796 0.024949 -0.448914
0.028456 -0.162447 0.017013
-0.179825 -0.169551 -0.192509
0.103729 0.459983 0.154726
-0.136636 0.243169 0.059375
0.159517 0.382894 -0.238051
0.378751 -0.042665 0.238881
0.140511 0.272768 0.335696
0.420512 0.190366 -0.112484
-0.033899 0.325411 -0.196250
0.400502 0.342862 -0.270383
0.362953 0.276009 0.387350
0.171913 0.406385 0.275122
-0.404160 -0.055522 -0.258019
0.302516 0.386021 0.127359
0.381451 -0.078554 0.191934
0.443521 0.288607 0.210741
0.296443 0.235753 -0.251551
0.355079 -0.028735 -0.141529
0.423836 0.161713 -0.113409
0.098216 0.237323 -0.418795
0.075050 0.061325 0.344315
-0.499209 -0.129048 -0.179275
0.178066 0.266569 -0.344005
-0.163226 0.102426 -0.186769
-0.254267 -0.085507 -0.303735
-0.054947 -0.265077 -0.325643
-0.080717 0.332322 0.050278
0.159901 -0.204283 0.034715
-0.130598 0.146865 -0.104158
-0.052108 -0.132650 -0.225232
-0.117480 0.237902 -0.323351
0.027183 0.441385 -0.019904
0.255125 0.409725 -0.072135
-0.192364 -0.096073 -0.256229
0.105768 -0.179330 -0.463973
-0.215406 -0.245901 -0.244898
0.317660 0.153158 0.455032
0.246009 0.037871 0.363476
0.194212 -0.205743 0.058211
0.104464 0.483644 0.034555
-0.151556 0.154054 -0.284649
0.006896 0.200164 -0.448960
0.165837 0.002413 0.361443
0.171603 -0.187460 -0.018501
-0.056430 0.345092 0.037108
0.398660 -0.011885 0.233759
-0.111846 0.150671 0.071498
-0.088466 0.241757 -0.361933
-0.363524 -0.152930 -0.338733
0.482498 0.100062 0.088497
0.375124 0.379188 -0.327872
-0.231610 -0.237912 -0.214137
0.000644 0.307202 -0.044622
0.340150 0.066198 0.339992
0.200793 0.466902 -0.213222
0.022619 0.019843 -0.466964
-0.025364 -0.116937 0.002554
0.327024 -0.054220 0.286016
0.285468 0.383038 -0.071042
0.077351 0.336147 -0.287497
0.264755 0.091122 -0.277894
0.371319 0.134867 0.448038
0.217399 0.391912 0.144102
0.013930 0.272577 -0.398058
0.425539 0.293164 0.047621
0.269300 0.421962 -0.184591
0.386485 0.236110 0.410009
0.257431 0.152281 -0.320933
-0.473731 -0.057833 -0.200482
0.462888 0.180962 0.226741
0.265934 -0.104985 0.281929
0.355847 0.309732 0.348253
-0.052267 0.186795 -0.430148
0.301242 0.378849 0.103355
0.138776 -0.165037 -0.069627
0.393751 0.307648 0.312842
-0.027946 0.264072 -0.388645
0.396003 -0.078607 0.123767
0.331425 0.167995 0.455176
0.005200 0.344905 0.193600
-0.055888 0.286077 0.166795
-0.342269 -0.121457 -0.228530
0.076647 0.504650 0.068002
0.378486 0.326490 -0.019963
0.260096 0.117786 0.375610
-0.005325 0.140773 0.278055
-0.061956 -0.018769 0.170146
-0.048003 -0.031049 0.187315
-0.004681 -0.067528 0.236049
0.102044 -0.157808 0.229853
0.030993 0.357196 -0.119079
-0.003868 0.302011 0.216217
0.323431 -0.028487 -0.150954
0.065186 0.523335 -0.064077
0.070988 0.509426 0.053540
0.244597 -0.171755 0.029781
0.118001 0.480203 0.067401
-0.116755 0.198610 0.132584
-0.451544 -0.051898 -0.222075
0.108943 -0.033142 -0.512768
0.216803 -0.179084 -0.004427
0.191807 0.409473 0.096995
0.285830 0.065667 -0.177797
-0.189108 -0.138992 -0.472169
0.272180 -0.123911 -0.032054
-0.258499 -0.151909 -0.268915
-0.273247 -0.284339 0.053832
0.493155 0.279514 -0.143832
-0.006977 0.037907 0.266492
