0.187273 -0.017260 -0.297490
0.132948 0.496401 -0.154015
0.067025 -0.163510 -0.043240
-0.462383 -0.142558 -0.303367
0.079429 -0.197749 0.060025
-0.190597 -0.241199 -0.043380
0.133565 -0.149100 -0.473006
0.043380 0.174012 -0.467843
0.218642 0.334807 0.305728
-0.100183 -0.057415 -0.127677
-0.295535 -0.302259 -0.013679
0.108006 0.211727 0.340186
-0.254450 -0.262264 -0.169713
0.497513 0.292090 -0.139850
-0.271235 -0.083322 -0.303727
-0.233106 -0.305378 -0.078162
0.278341 0.077976 -0.229741
-0.165801 -0.206400 -0.123376
0.043801 0.341206 -0.076885
0.318163 0.404138 -0.229050
-0.000484 0.329547 -0.136945
-0.025384 -0.098872 -0.130187
-0.224481 -0.294096 0.037020
0.080795 0.215204 0.330003
-0.412659 -0.059782 -0.268742
0.285072 0.422738 -0.227372
0.292933 0.132529 -0.235559
-0.090622 0.030927 0.083333
-0.047466 -0.090214 -0.524633
-0.293968 -0.183387 -0.285608
0.376546 0.315100 0.319988
-0.112287 0.168166 0.141452
0.380926 0.269102 -0.179601
0.228935 0.060969 -0.343027
-0.181424 -0.170164 -0.193592
-0.050057 -0.035028 0.182213
0.311959 0.082277 -0.169018
-0.150807 -0.011922 -0.469870
0.107262 0.382601 -0.225823
0.020150 -0.157410 0.018260
0.033769 0.361421 -0.163658
-0.325708 -0.095383 -0.319077
-0.019350 -0.186438 -0.287704
-0.234309 -0.083615 -0.323292
0.397822 0.311776 0.025179
-0.375141 -0.064003 -0.257273
0.242633 0.089000 -0.337752
-0.031028 -0.073758 0.197204
-0.081268 0.217025 0.190680
-0.281808 -0.291602 0.009860
0.167542 -0.124455 -0.121987
0.034611 0.287440 0.266073
0.121298 0.498906 -0.121129
-0.023118 0.211101 0.248713
-0.236926 -0.254212 -0.031013
0.270567 -0.106506 -0.058999
0.375353 0.142602 0.447470
0.050843 -0.123001 -0.259479
0.444193 0.139278 0.259122
0.274494 0.318609 -0.270225
0.435033 0.071116 -0.086147
-0.048027 0.359011 0.115115
0.397146 0.336185 -0.262877
-0.236617 -0.155825 -0.278664
-0.157926 -0.271632 -0.100103
-0.198980 -0.186872 -0.281807
0.038805 0.339020 -0.284729
0.264501 0.270702 0.387988
-0.136692 0.060480 -0.088651
0.127133 -0.086942 -0.384937
0.191668 0.299841 -0.256755
0.478513 0.128460 -0.025475
-0.194122 -0.206563 -0.285459
0.012668 -0.224951 -0.354727
-0.015539 -0.109782 -0.532209
0.441825 0.319439 -0.105897
0.021311 0.487072 0.021166
-0.065132 0.109296 -0.444230
0.253045 0.402445 0.182886
-0.121189 0.093891 -0.392892
0.249534 0.399160 0.245410
0.255469 -0.044371 -0.161995
0.352642 0.391845 -0.333260
-0.396468 -0.198866 -0.294287
0.255022 0.345712 -0.266954
0.207067 0.257925 -0.312575
-0.080153 -0.032333 0.058420
0.269756 0.015028 0.348493
0.287431 -0.118827 0.255445
0.053809 0.474010 -0.094476
0.023572 -0.191227 -0.359144
0.005630 -0.113698 -0.171867
-0.326429 -0.078365 -0.257651
0.325087 0.399205 -0.239124
0.230843 -0.195264 0.112006
0.100283 0.441780 -0.262203
-0.120898 0.128472 -0.050425
0.411538 0.056813 -0.120081
0.265828 -0.162784 0.205867
0.010575 -0.109601 -0.125390
0.346889 0.345556 -0.038188
0.159583 0.123006 -0.443181
0.465989 0.180118 -0.064589
-0.358303 -0.175927 -0.335982
0.432972 0.157597 -0.106623
-0.196398 -0.171835 -0.264431
0.331605 0.047358 -0.173430
0.224286 -0.007814 -0.234273
-0.555672 -0.162623 -0.275291
-0.101933 -0.109574 -0.212570
-0.162564 -0.244829 -0.272698
0.079587 -0.099975 -0.224901
0.088773 0.254176 0.316408
0.145900 0.336594 -0.229306
0.415039 -0.020453 0.196843
-0.114958 -0.138055 -0.511147
-0.082590 0.264287 -0.021294
-0.075084 0.201729 -0.404771
0.343097 0.386018 -0.162238
-0.332333 -0.327299 0.080318
0.076163 -0.114918 -0.135564
0.273009 0.381025 -0.004003
0.356625 0.315804 0.337159
0.292604 -0.086563 -0.033635
0.081376 0.395788 -0.053049
-0.287265 -0.340539 0.023185
-0.233974 -0.102931 -0.371146
0.025500 0.481083 0.030523
0.051744 -0.198901 -0.401843
-0.505867 -0.142511 -0.180365
0.361391 0.252827 -0.154929
0.178956 -0.184350 -0.025003
0.112463 -0.068344 -0.286031
-0.024752 -0.094929 0.181669
0.020966 -0.120350 -0.090103
-0.071833 -0.048813 0.044395
-0.531841 -0.119153 -0.216365
0.108690 0.460151 -0.000488
0.092120 0.445537 -0.247544
0.273331 0.338902 -0.300468
0.457785 0.208443 0.234693
-0.060463 0.023116 0.159180
0.144937 -0.073958 -0.408897
-0.150196 0.156546 -0.294669
0.029809 -0.168802 -0.296955
0.187086 0.050042 -0.392335
-0.473217 -0.096424 -0.241563
0.349059 -0.122605 0.114167
0.166259 0.433877 0.152882
0.050457 0.342785 0.245197
-0.088469 -0.006057 0.054453
0.437862 0.072803 0.243998
-0.016102 -0.107460 -0.056187
-0.275851 -0.189228 -0.308179
-0.310344 -0.375117 0.017975
0.275687 0.149865 -0.275078
-0.186128 -0.127382 -0.463402
0.360840 0.381123 -0.250171
0.201976 0.408600 0.062181
0.224697 0.108800 0.376687
-0.251277 -0.154457 -0.273214
0.429368 0.314953 0.165448
0.111244 0.444761 -0.289837
-0.085918 0.280780 -0.307712
0.056560 0.257687 0.305219
0.218650 0.390785 0.171559
0.505063 0.283973 0.021631
0.454305 0.148716 0.243641
-0.268961 -0.342494 -0.031448
0.323923 -0.066195 0.279499
0.188048 -0.131985 -0.102231
0.391108 0.003507 0.261541
0.154991 0.314499 -0.279374
0.314181 -0.019495 0.318288
-0.088120 -0.034812 -0.058010
-0.028298 -0.125671 0.059135
0.247407 -0.111341 -0.084194
-0.152883 -0.267584 -0.129592
0.149043 -0.163131 -0.072469
0.043847 -0.000615 -0.512178
0.119166 -0.095113 -0.202151
0.013453 -0.138567 -0.542243
-0.157927 -0.220910 -0.411912
0.382632 0.369512 -0.240965
0.238855 0.284453 0.332246
-0.022102 0.283955 -0.072025
-0.112020 0.064945 0.021772
0.481909 0.143098 0.156590
0.336115 -0.083968 -0.055714
-0.373243 -0.182981 -0.249265
0.510680 0.238608 0.100046
0.457106 0.123610 0.315579
0.225631 0.142458 -0.380190
-0.114962 0.069851 -0.430750
0.213551 0.402712 0.062991
0.346707 0.021521 -0.170979
0.360373 0.339014 0.286611
0.390183 0.334674 0.171540
0.407618 -0.053180 0.095784
-0.108466 0.019843 -0.028151
-0.242194 -0.094536 -0.342124
0.128382 -0.156260 -0.080669
0.391407 0.319578 -0.029700
0.224279 -0.025234 0.348177
0.355535 0.360347 0.121231
0.259256 0.069318 -0.258628
-0.166448 0.092564 -0.210848
0.474644 0.241779 -0.108696
0.123424 -0.160110 0.234308
0.186693 -0.108069 0.296913
0.156047 0.487577 -0.315447
0.439760 0.027099 0.164486
-0.171607 -0.264105 -0.026991
0.495840 0.289527 0.069763
0.144180 -0.094314 -0.489487
0.297981 0.365722 0.024876
-0.180020 0.034209 -0.393682
0.417767 -0.044248 0.097356
0.073475 -0.171010 -0.402601
-0.242307 -0.225780 -0.146705
0.392712 0.116457 0.433498
0.130806 0.301264 -0.345181
0.496193 0.158593 -0.002329
0.387145 0.325918 0.191598
-0.095421 -0.218232 -0.488792
0.405009 0.264950 0.363239
0.128889 0.451819 -0.012556
0.019947 0.235484 0.278637
0.321916 0.186181 -0.178117
0.219572 -0.095227 0.303234
-0.073058 -0.031677 0.092092
0.154447 -0.197837 0.176727
-0.052100 -0.011752 -0.523118
0.180144 0.277323 0.340203
-0.049181 -0.097008 0.030383
0.083001 0.173787 -0.459143
0.176305 -0.199728 0.174956
0.184131 0.439049 0.199151
0.483052 0.080819 0.051015
-0.285379 -0.125605 -0.251628
-0.183563 -0.278584 -0.059674
0.019910 -0.241814 -0.450282
-0.157673 0.103380 -0.276930
0.437431 0.016212 0.171901
0.444880 0.011115 0.147681
0.063198 -0.212680 -0.480214
0.468729 0.225811 0.212813
0.458843 0.073323 0.147597
-0.252232 -0.369481 -0.084991
0.230858 -0.197178 0.141946
-0.255976 -0.160372 -0.275783
0.174565 0.333772 -0.218531
0.045514 0.341526 -0.274589
0.144590 -0.182689 -0.034570
0.130572 -0.132898 -0.492081
-0.163692 0.059714 -0.192040
-0.123032 0.104379 -0.041928
0.036142 -0.117470 -0.148535
-0.008360 0.294377 -0.357022
0.081577 0.398515 -0.199409
0.032826 0.433388 -0.015204
0.409899 0.205722 -0.115831
0.258659 -0.168906 0.084421
0.500612 0.204964 0.040433
0.077486 0.216494 -0.441104
-0.090985 0.035666 -0.489305
0.288706 -0.160214 0.159502
0.262998 -0.174484 0.166194
0.427214 0.295362 0.004641
0.033271 0.365488 -0.135942
0.016481 -0.143564 -0.541551
-0.255688 -0.243844 -0.095630
-0.149935 0.094829 -0.140047
0.049176 -0.178595 0.146270
-0.132881 0.191783 0.038143
-0.004643 -0.034241 -0.533842
0.010927 0.349734 0.193959
0.448474 -0.013968 0.079659
-0.239224 -0.356919 -0.090249
-0.153278 0.143497 -0.164728
-0.021914 -0.117958 -0.529364
-0.094643 0.084593 0.064303
-0.121254 0.232867 0.007253
-0.127504 0.261510 0.081759
0.141626 0.194558 0.357718
0.312061 0.386610 -0.103137
0.245682 0.364987 0.273579
0.358945 -0.076123 0.235412
0.384345 0.064030 0.362455
-0.227035 -0.223663 -0.094545
-0.024100 -0.002280 -0.514685
0.367547 0.373572 -0.176826
0.319174 0.408446 -0.341327
-0.563822 -0.191666 -0.219049
0.383255 0.324042 0.295022
0.433527 0.094455 0.333939
0.159132 -0.208539 0.049106
-0.109650 0.010372 -0.494171
0.229432 0.126709 -0.379016
0.420833 0.233820 -0.137025
0.020787 0.337586 -0.185808
0.046025 -0.074748 -0.559327
0.220197 0.437642 -0.089480
0.109800 0.415380 0.202052
0.394493 0.360472 -0.201592
0.148095 0.441449 0.006526
0.091272 0.500761 0.068496
0.254869 0.271353 0.369562
0.324103 0.303456 -0.288534
-0.045998 0.284071 -0.126415
-0.603664 -0.178315 -0.162886
0.187639 0.227892 0.361310
0.111649 0.180603 -0.455425
-0.047098 0.237196 0.213726
0.135111 -0.202309 0.017648
0.306272 0.400168 -0.168287
0.193361 0.002068 0.363114
0.336388 -0.130223 0.113498
0.295748 0.376592 0.244753
0.009802 -0.138588 -0.021434
0.493287 0.206699 0.152656
0.333036 0.354100 -0.042184
-0.048228 -0.095963 -0.523020
-0.052654 -0.161577 -0.247805
0.020768 0.231601 0.279813
0.080317 -0.136926 -0.316168
-0.500072 -0.121317 -0.177590
-0.079460 0.297027 -0.193806
0.400666 -0.027948 0.217537
-0.077270 -0.018043 -0.519713
0.354564 0.217713 0.439655
-0.020185 -0.134888 0.080963
0.367424 0.348538 0.090934
-0.123687 0.243709 -0.231189
0.351054 0.383791 -0.217519
0.476235 0.311175 -0.101461
-0.157310 -0.251130 -0.072731
0.346952 0.360467 0.090255
0.023800 0.332048 -0.091355
0.459265 0.238832 0.262203
0.434596 0.168889 0.407364
0.139108 0.447724 -0.015986
0.208266 0.166664 -0.394729
0.174610 0.435749 -0.299823
0.419633 0.298434 0.029609
0.460302 0.050311 -0.038479
0.444376 0.304866 0.173770
-0.043412 0.324404 -0.220935
-0.316239 -0.355784 -0.018916
0.269414 0.382153 0.005490
0.335097 0.379954 -0.125947
-0.100563 0.144060 0.044289
0.234437 0.161430 0.371935
0.302465 -0.119868 0.041159
-0.040794 0.277706 -0.369017
-0.303540 -0.089739 -0.314874
-0.010127 -0.076382 0.222712
0.085008 -0.171527 -0.521498
0.162420 -0.208956 0.131457
-0.127907 0.240039 0.105140
-0.092969 0.043254 0.061637
0.058854 -0.168145 -0.365819
-0.082781 -0.038645 -0.022171
0.475967 0.187255 0.297445
-0.198221 -0.116581 -0.267417
0.072730 0.414630 -0.077334
-0.115364 0.241417 -0.323484
0.337757 -0.122157 0.165816
-0.426755 -0.186988 -0.244210
0.234660 0.026854 -0.266211
0.495904 0.148977 0.125297
-0.122635 0.248071 -0.236021
-0.142107 -0.229814 -0.410642
0.091835 -0.181031 -0.025530
0.008042 -0.119970 0.201745
-0.266245 -0.322796 0.005930
-0.484917 -0.063451 -0.225266
-0.186470 -0.122520 -0.454429
0.195296 0.460793 -0.308212
-0.280093 -0.324101 -0.106361
-0.026049 0.302156 -0.129084
0.282251 0.347933 -0.329835
0.109471 0.039466 -0.439814
0.326553 -0.059306 -0.112889
-0.278626 -0.160385 -0.360018
0.047947 0.528937 -0.017262
0.016159 0.188330 -0.458357
0.168903 0.419586 0.110675
0.408764 -0.061488 0.077312
-0.394979 -0.193196 -0.263119
0.024579 0.537275 -0.017200
0.221211 0.077640 -0.381353
0.390011 -0.071752 0.091361
0.033233 -0.031515 -0.546934
-0.108173 -0.222732 -0.257184
-0.258222 -0.372043 -0.064373
0.058406 0.374848 -0.095264
0.421084 0.301765 0.105488
0.274796 0.396009 0.151249
-0.217680 -0.208804 -0.124637
0.185678 0.476527 -0.249954
-0.057095 -0.075658 -0.001355
0.142957 0.155238 -0.449960
0.388505 0.327017 -0.263269
0.242905 0.036207 -0.248754
0.153193 0.494423 -0.300389
0.400416 -0.051122 0.184519
0.129281 0.460515 -0.308630
0.394396 0.365095 -0.277940
-0.026755 -0.117603 -0.213377
0.151984 -0.190916 -0.016733
0.469603 0.189638 0.323264
0.306882 0.136833 -0.197141
0.013430 0.313299 -0.333687
0.343231 0.312098 0.353728
-0.146981 -0.009156 -0.164531
0.167969 -0.209284 0.129233
-0.067642 0.250806 -0.092271
0.181259 0.472236 -0.158115
0.334357 0.343496 0.299250
0.144085 0.328450 -0.238178
0.147613 -0.079913 0.319629
0.492866 0.204143 0.082752
-0.080883 0.331980 0.049672
0.058849 0.515661 -0.098792
0.112042 0.464205 -0.049309
-0.209801 -0.293072 -0.209395
0.274101 0.000930 -0.174253
0.398164 0.317923 0.277004
0.049025 0.472215 0.075544
0.080327 -0.150070 -0.343001
0.326570 0.322238 0.344118
0.309216 0.144964 -0.169570
0.034778 0.055179 0.313490
-0.167152 -0.239106 -0.066673
-0.384487 -0.199375 -0.291625
0.431670 0.089488 0.345170
0.161213 -0.192983 0.188390
-0.007436 0.322920 -0.121465
0.354336 -0.117052 0.087931
-0.084376 -0.035497 -0.033960
0.228422 0.329010 0.305765
-0.071671 0.250330 -0.100643
0.126657 0.477580 0.099042
-0.013454 -0.162295 -0.264644
0.329857 0.356425 0.193735
-0.068471 0.280690 -0.147391
0.077921 0.314392 -0.342429
0.214911 -0.133366 -0.082456
-0.331962 -0.074848 -0.261433
0.229422 0.208866 -0.342561
0.143902 -0.107426 0.296187
0.233381 0.020045 0.361517
-0.252493 -0.315891 -0.032222
0.174398 0.437660 0.245969
-0.125144 0.142200 -0.082465
0.192234 0.328426 0.323410
0.109544 0.063251 0.364331
-0.074607 -0.049210 -0.049994
0.167755 0.422536 -0.290904
-0.160272 -0.232523 -0.091379
0.033091 -0.145429 -0.045878
-0.031589 0.002981 0.217312
0.275974 0.128179 -0.266263
0.425569 0.342009 -0.174241
0.136227 0.502557 -0.249464
0.390923 0.300696 -0.201580
-0.007054 0.000162 0.245964
0.306215 -0.146716 0.176337
-0.028935 0.032777 0.213472
0.465879 0.181865 0.221347
0.207837 0.375853 -0.231032
0.492138 0.255539 -0.018072
0.033922 0.453664 0.058583
0.036751 -0.233773 -0.455067
0.234806 0.411482 -0.276757
-0.123753 0.095663 -0.052196
0.060022 -0.042862 0.310045
-0.123436 0.018432 -0.086916
0.042173 -0.157369 -0.029817
-0.548779 -0.106897 -0.195027
0.045614 0.315160 -0.341875
-0.577857 -0.174906 -0.269934
-0.162462 -0.176476 -0.171280
0.317801 0.214749 -0.232559
0.054614 -0.217797 -0.421636
0.034021 0.344853 -0.252602
-0.047330 0.321162 -0.201243
0.237549 0.079737 -0.339187
-0.114733 0.068192 -0.433738
0.318429 -0.131650 0.176927
-0.022051 0.309625 0.187143
0.390432 0.084898 0.312520
-0.057698 0.155623 0.229032
-0.155387 0.012643 -0.449692
-0.091223 0.082578 0.082956
0.149848 0.397050 -0.249942
0.250902 0.117637 -0.339141
0.008477 0.306636 -0.055871
0.332225 0.358442 0.258798
0.190400 0.122211 0.374567
0.053556 0.086638 -0.472129
-0.390346 -0.158922 -0.331312
0.154734 0.431029 0.066513
0.293990 0.277289 -0.256596
0.284708 0.089677 0.368304
0.291486 -0.076957 -0.065561
-0.058344 0.189799 0.216007
0.234148 0.277099 0.337135
-0.500678 -0.173417 -0.211690
0.211094 0.442863 -0.167891
0.012832 0.488026 -0.027804
0.275108 0.393282 0.209242
-0.017408 0.013109 0.231676
0.404161 0.343737 -0.245618
0.223826 -0.100251 0.298405
-0.141066 0.096060 -0.349912
0.116824 -0.074797 -0.259106
-0.544133 -0.154656 -0.249449
-0.401852 -0.108764 -0.282737
0.371455 0.064807 0.358036
-0.305909 -0.379904 -0.031521
0.436788 0.247923 0.337444
0.026801 -0.240493 -0.416755
-0.139028 0.200353 -0.264020
-0.034326 -0.110876 0.014651
-0.022537 -0.036964 0.224445
0.305642 0.365507 -0.015173
0.232528 0.082964 0.374628
0.340290 0.260712 -0.212279
-0.083902 0.219794 0.186083
-0.035210 -0.128036 -0.221834
-0.039743 -0.144621 -0.236325
0.055088 0.164480 -0.470311
0.262717 -0.099659 -0.075517
-0.157955 -0.046777 -0.228831
0.405387 0.314927 -0.090470
-0.141692 0.146557 -0.125761
0.277298 -0.010723 -0.163446
-0.036818 0.212324 0.236887
-0.336828 -0.347580 0.072193
-0.049469 -0.069849 -0.527567
-0.582907 -0.188854 -0.254041
0.016700 0.340837 -0.025350
0.410998 0.320593 0.216443
-0.130077 0.225812 -0.183535
-0.095587 0.282812 0.121992
0.484908 0.173893 -0.038803
0.313758 0.395409 -0.146086
0.019960 0.524609 -0.005975
-0.089712 0.149582 -0.416057
0.088514 -0.195879 -0.452532
-0.470483 -0.170137 -0.306882
0.160676 0.146625 0.366639
0.184941 -0.089241 -0.156346
-0.220612 -0.291722 -0.075257
0.177242 -0.017985 -0.310849
0.038059 -0.159051 -0.286642
-0.227251 -0.170111 -0.388606
0.385515 0.246732 -0.152345
-0.081597 -0.022836 0.068057
0.260887 0.106906 0.374987
0.437470 0.335004 -0.173867
-0.531082 -0.172976 -0.196943
-0.204100 -0.165513 -0.283519
0.184084 -0.203522 0.159471
-0.147038 -0.239789 -0.128614
0.033225 -0.083571 -0.556248
0.432055 0.286843 0.074055
0.108440 0.050101 0.359290
0.011986 0.083658 -0.472031
0.316410 0.160456 -0.191269
0.104209 -0.172581 -0.438555
0.109731 0.028780 0.351985
0.081691 0.170047 0.339624
0.339888 0.248451 -0.174277
-0.187652 -0.089618 -0.442416
0.159676 0.433141 0.136223
-0.094205 0.229734 -0.370043
-0.481678 -0.157068 -0.308371
-0.048121 -0.100309 0.086552
0.217154 0.345347 0.295529
0.312717 0.050722 0.345674
-0.240601 -0.094296 -0.280030
0.377195 0.101752 -0.142567
0.186509 -0.043685 -0.242002
-0.164462 0.083718 -0.184131
0.321453 0.124807 -0.151361
0.031368 -0.116317 -0.142277
0.397506 0.123030 -0.130052
0.378568 0.368416 -0.182837
0.446211 0.009628 -0.017242
-0.109629 0.099436 -0.405176
0.093484 0.408985 0.199332
0.050070 0.529533 -0.037699
0.032974 -0.130312 -0.079741
-0.123289 0.166166 0.096450
0.176681 -0.173148 0.223841
-0.402318 -0.103463 -0.280550
0.083803 0.440487 -0.203497
0.031573 0.294620 0.259221
-0.356558 -0.108155 -0.223558
0.342284 0.036585 -0.172560
-0.111592 0.259557 -0.216447
-0.434479 -0.049278 -0.245674
0.023834 -0.228878 -0.389485
-0.265167 -0.257603 -0.116935
0.453626 0.116273 0.346138
-0.080779 -0.031008 0.057502
0.318953 0.195136 -0.225159
-0.127599 0.171650 -0.354959
-0.080564 0.152926 -0.423962
-0.026191 0.277682 -0.065381
-0.077277 -0.261953 -0.344794
0.191903 -0.208033 0.070830
-0.036690 -0.095272 -0.133798
-0.027736 0.055320 0.226503
0.025154 0.321604 -0.326889
0.254829 0.057802 -0.292220
-0.189593 -0.171413 -0.467356
-0.413006 -0.101628 -0.207384
-0.268832 -0.126847 -0.257495
0.071809 0.515672 -0.006068
0.260902 -0.040280 0.329474
-0.050288 0.281977 -0.128892
0.352578 -0.105167 0.190972
0.185667 0.469066 -0.145829
-0.042025 -0.054105 0.191968
0.059931 0.323192 -0.328026
-0.102088 -0.070585 -0.508667
0.499516 0.176019 0.006918
-0.296913 -0.376368 -0.002890
0.136364 0.494400 -0.148423
-0.257973 -0.257139 -0.060398
0.000121 -0.147548 0.036327
0.495922 0.187766 0.083397
0.506715 0.276414 0.005014
-0.280704 -0.138087 -0.354264
0.468104 0.100171 0.183197
0.107192 0.071161 0.364997
-0.075387 0.062399 -0.457573
0.391448 -0.074464 0.084938
0.276990 0.027883 0.350704
-0.226106 -0.213525 -0.125717
0.329750 0.214752 -0.165868
-0.254303 -0.168597 -0.367373
-0.010385 -0.135509 -0.537394
-0.520664 -0.067594 -0.200700
-0.122092 0.279468 0.043702
-0.178134 -0.268585 -0.137138
-0.166792 -0.255287 -0.044779
0.428525 0.121930 0.279479
0.450872 0.324630 -0.124087
0.055922 0.475971 0.080456
-0.119148 0.143805 -0.058861
-0.124382 0.037177 -0.062235
-0.078753 0.204298 -0.402580
0.033154 -0.201288 -0.511409
0.095790 -0.041229 -0.535251
-0.020064 0.381703 0.037727
0.196805 0.013853 -0.337544
0.189274 0.407606 0.131170
-0.118837 -0.160468 -0.518208
0.228735 0.403207 0.197413
0.388637 -0.076573 0.165294
-0.469260 -0.128811 -0.264544
0.245953 -0.185253 0.154519
0.258223 -0.087167 0.297994
-0.053897 0.142682 0.230955
0.023382 0.335621 -0.034519
-0.093126 0.163931 0.179385
0.226781 -0.107918 -0.106494
-0.210691 -0.288484 -0.014412
-0.308074 -0.375162 -0.031094
-0.059928 0.266987 -0.107206
-0.045092 -0.077265 -0.083926
-0.166101 0.091942 -0.196353
0.079410 0.508372 0.046879
0.080541 -0.155627 0.221352
0.279212 -0.073775 -0.077300
-0.254911 -0.099829 -0.267801
0.335645 0.369282 -0.120353
0.350544 -0.014940 -0.154377
0.233031 0.061216 0.370954
0.012042 0.162436 0.292150
0.195638 0.111683 -0.413412
0.195212 0.432710 0.211847
0.264658 0.091499 -0.267235
-0.135464 -0.053159 -0.490789
0.197670 0.412893 0.045735
-0.035606 0.373408 0.052990
-0.469005 -0.084139 -0.194557
-0.066563 0.005140 0.162706
-0.126802 0.223066 -0.204656
-0.081359 -0.260883 -0.363731
0.062597 0.514886 0.037766
0.504376 0.219595 0.141046
0.443435 0.297962 0.002523
0.422704 0.083698 0.272028
0.223176 -0.197244 0.108199
-0.251993 -0.263271 -0.177207
0.030267 0.363180 0.198569
-0.240065 -0.185388 -0.316051
0.396143 -0.062941 0.164901
0.260207 0.109797 -0.315346
-0.304031 -0.195605 -0.320879
0.067006 -0.185809 0.026498
0.331328 0.388268 -0.357641
-0.009294 0.304933 -0.086275
-0.084614 0.225498 -0.046002
0.208065 -0.141084 0.262546
0.196669 -0.083731 0.316691
0.250930 0.316058 0.311583
-0.035460 0.327771 -0.223335
-0.372622 -0.081988 -0.228645
0.046711 -0.130627 -0.262221
-0.035712 -0.243677 -0.308831
0.212196 -0.109952 0.292511
0.020752 -0.243657 -0.439775
0.459482 0.009825 0.074307
-0.182014 -0.135543 -0.478347
0.015536 -0.137941 -0.035193
0.083079 0.438786 -0.198350
0.453631 0.256089 0.264745
0.043099 -0.144138 -0.062882
-0.243993 -0.177760 -0.301099
-0.166022 0.070272 -0.204938
0.134905 -0.080544 -0.393965
0.504391 0.244569 0.067483
-0.277634 -0.343114 -0.099049
-0.200583 -0.026035 -0.292796
0.024238 0.147420 0.304796
0.131557 0.257200 0.338024
-0.161219 0.075035 -0.271968
0.122197 -0.185289 0.191250
0.052936 -0.117190 -0.186823
-0.212868 -0.222069 -0.084274
-0.191993 -0.178773 -0.452339
0.207570 0.395987 0.148082
0.221404 -0.169190 -0.021053
0.081879 0.376543 -0.061902
0.156559 0.492088 -0.258508
-0.049264 -0.215618 -0.288458
0.224537 0.435841 -0.161626
0.296972 0.364617 0.042368
-0.104004 -0.251864 -0.318517
-0.287668 -0.364809 -0.065668
0.020281 -0.238895 -0.460031
0.135168 0.143424 -0.453898
0.314326 0.390677 -0.106402
-0.298231 -0.106547 -0.248518
0.100326 -0.191345 -0.005665
-0.365655 -0.168834 -0.235534
0.506489 0.258973 0.150493
-0.539222 -0.091631 -0.196174
0.240279 -0.008599 -0.219304
-0.021430 0.318548 -0.304141
0.185530 0.472761 -0.193081
0.458939 0.147256 0.235772
0.003557 -0.042745 0.256399
-0.237481 -0.099579 -0.274285
0.010909 0.396913 0.019719
-0.004055 -0.143498 0.032494
0.104932 -0.037646 -0.524318
-0.129550 0.231104 0.105896
0.150508 0.446383 -0.068931
0.378749 0.330205 -0.079908
0.029507 0.043122 0.305962
-0.452690 -0.054912 -0.214851
-0.123669 0.219968 -0.330227
0.482446 0.288635 0.145550
0.009565 0.338930 -0.128372
-0.357184 -0.197503 -0.309905
0.137889 0.120820 0.368163
0.003995 0.335711 -0.250972
0.305509 0.327839 0.337343
-0.096260 -0.068354 -0.160364
-0.098743 -0.111918 -0.213631
0.155699 0.061213 -0.431290
0.308297 0.001102 -0.167548
0.469298 0.085928 0.137686
0.417205 0.194234 0.414493
-0.020301 0.212138 -0.436382
0.253250 0.187171 0.380506
0.148631 -0.127295 -0.420256
0.286920 0.402893 -0.084435
0.328577 -0.091807 -0.019547
0.460039 0.200950 0.256380
0.141155 -0.133018 -0.416828
0.395282 0.322100 -0.112591
-0.169225 -0.268940 -0.125705
-0.100728 0.306390 0.030809
0.158861 -0.072045 -0.449033
-0.078521 -0.055760 -0.521632
0.311330 0.410379 -0.280014
-0.119314 0.247171 -0.308899
-0.025414 0.335682 0.169189
0.437916 0.149759 0.403562
0.102372 0.190940 -0.453029
-0.191758 -0.109840 -0.435646
-0.148123 0.116812 -0.139854
0.283165 -0.157779 0.116493
0.385803 0.321314 -0.255210
0.398719 0.332425 -0.130161
0.390886 -0.084302 0.121795
0.465688 0.228447 0.284970
0.111048 -0.122194 -0.522264
0.259471 -0.172543 0.192277
0.229161 0.019180 -0.283815
0.097891 0.484624 -0.044999
0.394190 0.045816 -0.142849
0.248830 -0.128187 -0.060966
-0.132274 -0.017857 -0.122836
0.179160 0.140869 -0.426970
0.508124 0.225146 0.134920
0.194961 -0.203406 0.154448
0.095055 0.051973 -0.449923
0.395822 0.357718 -0.312568
0.117482 0.082361 0.370397
0.097431 0.279608 -0.381025
-0.096797 0.003321 0.002501
0.082454 0.053396 -0.453889
0.079716 0.274063 -0.397748
0.180014 0.479098 -0.302591
0.320414 0.302024 -0.280249
0.247124 0.224261 0.371709
0.158940 0.455728 0.165157
-0.034819 -0.117262 0.085355
0.483445 0.307827 -0.112904
0.251812 -0.169132 0.207798
0.093866 0.327787 -0.311970
0.092910 0.011782 0.345010
0.350801 0.391275 -0.301309
0.183264 0.385329 -0.241289
0.122515 -0.076826 -0.503067
0.214230 0.085577 -0.394408
-0.240348 -0.137620 -0.269290
0.378427 0.320965 -0.301464
0.152323 -0.156157 0.245279
0.166927 0.484878 -0.310296
-0.186020 -0.120791 -0.452200
0.086263 0.337764 -0.262741
0.109024 -0.077919 -0.257341
-0.236992 -0.303825 -0.056741
0.391195 0.323204 -0.090075
-0.024416 0.206265 0.248618
0.302831 0.087574 0.379789
-0.047338 0.152357 -0.450387
0.287728 0.408565 -0.165935
0.252914 0.438405 -0.212213
0.008196 -0.027698 -0.537335
-0.100073 0.276712 -0.207890
-0.058387 0.248260 -0.059035
0.496361 0.184277 0.083338
0.077076 0.335929 -0.289206
0.245279 -0.150847 0.242825
-0.008938 -0.104522 0.196895
0.009367 0.025481 -0.469403
-0.146044 -0.230554 -0.390268
0.049409 0.350386 -0.204210
0.053997 0.263726 0.300190
-0.139106 0.217049 0.045797
-0.154686 0.076282 -0.318353
0.440898 0.161710 -0.093801
0.137966 0.075690 -0.443060
-0.356232 -0.198635 -0.301020
0.472829 0.136489 -0.042562
-0.155041 -0.251439 -0.081283
0.223920 0.255628 -0.279821
0.053634 -0.211388 -0.413396
0.225355 -0.180178 0.205762
-0.009757 -0.122477 -0.535597
0.026597 0.442098 0.027038
0.326865 0.031292 -0.174436
-0.038820 -0.102134 0.109824
-0.381468 -0.187908 -0.255194
-0.017029 -0.029193 0.233683
0.068021 0.016401 -0.450088
0.168672 0.026242 -0.391614
0.151503 0.492421 -0.221274
0.034104 0.417027 0.133858
-0.277991 -0.278817 -0.095935
0.373663 -0.100391 0.108597
0.126086 -0.032336 -0.357098
0.174359 0.369805 0.295327
0.305204 0.155737 -0.221149
0.373793 -0.078589 0.210941
0.139732 -0.072034 0.323191
-0.216224 -0.150799 -0.431106
0.097176 0.336952 0.300005
-0.059780 0.177097 0.221734
0.102541 -0.202258 0.128582
-0.211381 -0.192988 -0.329038
0.496602 0.236100 0.057356
0.208463 -0.071831 0.323361
0.133239 -0.168147 0.225001
0.003818 -0.069699 -0.544555
-0.121750 0.273385 0.027290
0.267033 -0.115107 0.273244
-0.011457 0.366029 0.012259
-0.099015 0.039859 0.046802
0.110433 0.308436 0.320426
0.022066 0.093857 -0.475469
0.381659 0.321535 0.303825
-0.297727 -0.142319 -0.248158
0.171548 0.446744 0.177983
0.009015 0.331409 -0.182855
0.284912 0.081383 0.364457
-0.357087 -0.197070 -0.311241
0.267815 0.299270 0.354689
-0.026073 -0.110389 0.154647
0.145875 -0.157874 0.241880
0.415885 -0.055754 0.061420
0.143006 0.042682 -0.427486
0.108080 0.096899 -0.459096
-0.125784 0.224006 0.117404
0.138706 0.146521 0.358426
-0.011742 -0.257322 -0.422150
0.331271 0.073190 0.363884
-0.268288 -0.262497 -0.111630
0.385533 0.329430 0.267710
0.392620 -0.001043 -0.121544
0.178624 0.144793 0.372680
-0.176122 -0.177208 -0.168583
-0.027739 -0.148890 -0.243178
0.303454 0.399926 -0.136340
-0.010364 -0.171685 -0.278433
0.283172 0.216409 -0.255720
-0.511229 -0.062923 -0.187534
0.187717 0.426810 -0.052248
0.363618 -0.108358 0.140202
-0.574444 -0.159711 -0.224094
-0.179961 -0.070681 -0.247136
-0.245181 -0.156142 -0.276407
-0.055104 0.261357 -0.090044
0.452040 0.017472 -0.033458
0.452539 0.168521 -0.079985
-0.042333 0.131178 -0.456968
0.379546 -0.084513 0.009908
-0.033672 -0.118701 0.085012
-0.600964 -0.191887 -0.188416
0.245798 0.139485 0.372794
0.470022 0.059817 0.104587
0.055287 0.426010 -0.058755
0.132567 0.468818 -0.085965
0.187355 0.474478 -0.300945
-0.173397 0.047845 -0.327420
-0.152526 -0.264910 -0.088343
0.348034 0.343362 -0.019245
0.475659 0.189689 0.295849
-0.157529 0.117054 -0.257273
-0.009666 0.320286 -0.137564
0.395696 -0.070070 -0.011602
0.009653 -0.155037 0.039832
-0.131025 0.033892 -0.085697
0.149951 0.005403 -0.392293
0.221421 0.457509 -0.243419
-0.253054 -0.243154 -0.089054
0.186836 0.133004 -0.421548
-0.278574 -0.279053 -0.047005
0.265889 0.387000 -0.026358
0.431570 -0.032211 0.101911
0.263527 0.390350 -0.041427
0.101226 -0.109520 -0.187541
0.389042 0.323978 -0.077072
-0.081311 0.031327 0.126030
0.137939 -0.058712 -0.283049
0.233044 0.028418 -0.279555
0.076016 -0.109544 -0.211213
0.006177 0.267602 -0.402891
0.271343 -0.029379 -0.150288
0.046307 -0.174246 0.022588
0.398748 0.319159 -0.093537
0.395365 0.313577 0.015929
-0.205062 -0.064818 -0.408575
0.315493 0.360539 -0.015682
-0.082018 -0.095141 -0.509274
0.332779 0.284445 -0.242953
0.072601 -0.127820 0.252348
-0.149592 0.162716 -0.278113
0.206739 0.400011 0.188799
0.212715 0.396437 0.121665
-0.119918 0.207327 -0.351909
-0.295283 -0.326058 0.067072
-0.145084 0.151842 -0.323076
-0.070027 -0.072162 -0.115241
0.312265 -0.069103 0.286974
0.100691 0.456071 -0.279925
0.210231 -0.066293 -0.173441
0.003251 -0.188335 -0.525472
0.262930 0.275137 -0.260266
-0.128801 0.197032 0.110512
-0.156442 -0.156816 -0.210719
-0.021160 -0.094555 -0.110816
-0.081792 0.116262 0.146761
-0.049640 0.335618 0.134849
0.322440 -0.108233 0.231021
0.042622 0.340833 -0.279653
0.046459 -0.132431 -0.263486
0.031900 -0.185303 -0.369099
-0.163501 -0.219109 -0.105809
0.172870 0.149056 0.371162
0.174776 0.403731 0.277106
-0.029446 0.312969 -0.162284
-0.083406 -0.168951 -0.521380
0.074742 0.258158 0.313515
0.010044 0.328972 -0.030811
0.433971 0.210713 -0.100302
0.076164 0.406355 0.199049
-0.132069 0.231378 0.099056
-0.350787 -0.131204 -0.225690
0.367692 -0.093189 0.049399
0.021125 0.131013 0.300064
0.308260 0.273531 -0.252390
-0.120023 0.085824 -0.010261
0.311750 0.248571 -0.245192
-0.214046 -0.294408 -0.113379
0.198771 0.259067 -0.326728
0.329729 0.085924 -0.162777
-0.037592 -0.225100 -0.300707
0.084551 -0.063324 -0.549776
-0.037135 -0.019374 -0.525125
0.007278 -0.001305 -0.509560
-0.093126 -0.142271 -0.516706
0.079871 0.121155 0.347610
-0.139434 -0.235606 -0.358096
-0.099028 0.187883 -0.022536
0.461657 0.021388 0.047644
-0.063356 0.258834 -0.039494
0.031036 -0.181822 -0.341704
0.216946 0.118973 0.376391
-0.145935 -0.069993 -0.479528
0.009079 -0.112504 -0.187525
-0.321038 -0.193836 -0.290638
0.218283 0.408308 -0.006032
-0.003921 -0.158773 -0.537258
0.268750 0.348092 -0.305023
0.046385 0.250395 0.300695
0.458580 0.012254 0.033315
-0.062288 0.263554 -0.106021
0.072576 0.218841 0.323971
0.108047 0.139638 -0.461027
0.180569 0.464857 -0.107516
-0.258114 -0.089993 -0.325224
-0.194124 -0.019569 -0.416626
0.337451 -0.116193 0.190282
-0.138592 0.205201 -0.189309
0.177898 0.476206 -0.189930
-0.116357 -0.245531 -0.389947
0.181670 -0.104591 -0.138488
0.280611 -0.104142 0.275172
0.211268 0.127943 -0.399885
0.407930 -0.030346 0.201204
0.119871 0.205382 0.345081
0.120553 0.263076 -0.390003
0.018339 0.347302 -0.137138
-0.151834 0.149660 -0.155543
0.050667 0.400454 -0.010952
0.131243 0.465425 0.177231
0.211889 -0.015893 -0.244165
0.285116 0.109719 -0.241383
-0.043960 0.323094 0.147438
0.294235 -0.008873 0.330781
0.043639 -0.143753 -0.064156
-0.235835 -0.281637 -0.203539
0.444258 0.056267 0.175161
-0.117735 0.115262 -0.010866
0.205875 0.394713 -0.255228
0.186903 0.076841 -0.409355
0.070397 0.139023 -0.472406
-0.154103 -0.271873 -0.095001
0.008455 -0.108106 -0.114647
0.258566 0.392626 -0.041272
-0.104950 0.254874 -0.157526
-0.343325 -0.072082 -0.273587
-0.197365 -0.062490 -0.270526
0.433558 0.069928 0.248189
-0.026981 0.132450 -0.465084
0.007294 0.411977 0.066922
0.372337 0.114745 -0.140850
-0.122732 -0.235697 -0.427969
0.142313 0.440836 0.227155
-0.036064 -0.269622 -0.358727
0.051438 -0.068067 0.291919
-0.264222 -0.113250 -0.353200
0.278637 -0.165166 0.151074
-0.061825 -0.252665 -0.434479
-0.035090 0.097625 0.221791
-0.517150 -0.163285 -0.297076
0.224166 -0.177953 0.003789
0.484293 0.083807 0.050630
0.091941 -0.203805 0.070663
-0.244461 -0.327428 -0.073578
0.223107 0.180093 0.371583
-0.039654 -0.242627 -0.465875
0.320843 0.404079 -0.268065
-0.316863 -0.384965 0.017640
0.159884 0.423997 0.121759
-0.129852 0.182087 0.043826
0.020571 -0.193412 -0.354036
0.302028 0.090585 -0.169372
0.232262 0.402530 -0.018169
-0.228243 -0.138528 -0.400956
-0.150918 0.015934 -0.147685
0.014104 0.336780 -0.216828
-0.023060 0.324174 0.177847
0.453882 0.112745 -0.080837
0.100672 -0.172849 0.204964
0.058082 -0.222091 -0.445030
-0.075316 0.016540 0.130054
-0.291712 -0.163676 -0.261212
0.174772 0.480123 -0.218309
0.015493 0.420973 0.069983
0.348088 -0.099916 0.212280
-0.020328 -0.110086 -0.037551
0.024742 0.427834 0.051224
0.023733 -0.013458 0.286992
-0.034554 -0.107581 0.004579
0.101398 0.471169 -0.040775
0.328908 0.286375 -0.248036
-0.333693 -0.362408 0.013079
0.357031 0.023239 0.308870
0.267465 0.391421 0.239059
-0.035833 0.315030 -0.291509
0.140738 0.060299 -0.436915
0.162806 -0.077788 0.323300
0.030723 -0.163421 0.015149
0.125761 0.121369 -0.455590
0.021859 -0.169177 0.119754
-0.358911 -0.136197 -0.334757
0.066364 -0.186514 0.031472
-0.028570 0.073951 0.215837
-0.071904 -0.082256 -0.150326
0.208460 0.256844 -0.311965
0.120193 0.226481 -0.421758
-0.009559 -0.141563 0.127190
0.478774 0.211880 0.198775
0.009163 -0.250101 -0.368601
0.188093 0.038757 -0.383115
0.008309 0.156553 0.289709
-0.565226 -0.103943 -0.149321
-0.521793 -0.070437 -0.201546
-0.005380 -0.140119 0.021536
0.282414 -0.155052 0.197875
0.033009 0.184375 0.303909
0.408989 0.245428 0.382328
0.419350 -0.052805 0.007007
0.129624 0.021838 -0.418445
-0.111467 -0.220369 -0.249340
0.209524 0.432648 -0.080564
0.116577 0.463862 -0.064378
0.392896 0.127871 -0.129925
0.480303 0.143317 -0.029356
0.426313 -0.036064 0.093954
0.434772 0.308184 0.192143
0.444801 0.006255 -0.028184
0.192058 0.467528 -0.161647
0.004964 0.331532 -0.198704
0.356693 -0.113962 0.086953
-0.308666 -0.090912 -0.315275
0.379965 -0.074796 -0.041577
0.221911 0.394153 0.104597
0.409042 0.334132 -0.131849
0.141205 0.457356 0.200972
0.206710 0.357664 -0.218771
0.228794 0.180224 -0.363847
-0.150345 -0.264932 -0.111287
-0.030562 -0.095061 -0.055781
0.431300 0.337616 -0.149693
-0.122493 0.071143 -0.420415
-0.072957 0.307003 -0.267006
-0.138665 -0.240952 -0.210133
0.502633 0.263560 0.029248
0.081455 0.498277 -0.253013
-0.061117 0.248178 -0.050721
-0.161340 0.140863 -0.229547
0.051209 0.444433 0.092295
0.229846 0.389285 0.109631
-0.259435 -0.309174 0.055279
-0.082928 -0.086789 -0.192848
0.457365 0.165268 0.365150
0.165927 0.359581 0.296610
0.253066 0.058483 -0.248707
0.111445 0.460047 -0.016529
0.307400 -0.090071 -0.012117
-0.295640 -0.087248 -0.262776
-0.251755 -0.131980 -0.264060
0.083933 -0.178295 -0.025088
0.218471 0.175778 -0.378719
-0.117640 0.180089 -0.085262
0.227348 -0.179153 0.018635
0.052353 -0.162260 -0.316543
0.476966 0.073079 0.085805
0.304873 -0.046315 0.308750
0.271200 -0.042667 0.324816
-0.236265 -0.151627 -0.388988
0.023398 0.461107 0.030939
-0.118315 0.113815 -0.010731
-0.166668 0.084719 -0.220287
0.253113 0.173302 -0.322150
0.030205 0.099322 0.313759
0.394979 0.337496 -0.287761
0.087483 -0.092224 -0.279189
-0.571212 -0.155042 -0.218447
0.045015 0.346044 -0.241334
0.048630 -0.063626 0.292348
0.119872 0.396953 0.249783
-0.200038 -0.186072 -0.259997
0.387499 0.309319 0.318379
0.119938 0.414281 0.216999
-0.017463 0.028175 -0.478854
0.318627 0.140346 0.453646
-0.272405 -0.275065 -0.037414
0.051142 -0.161796 -0.313359
0.438626 0.084400 -0.080913
0.401344 0.021895 -0.134639
-0.168871 -0.256701 -0.256233
0.409862 0.016480 0.243939
0.381336 0.084986 -0.145720
0.278625 0.019308 0.347008
0.315313 -0.136791 0.087685
-0.016721 -0.051111 0.229266
-0.129013 0.151374 -0.367197
0.481586 0.244464 -0.051531
0.088772 0.448971 -0.242525
-0.000036 0.309382 -0.040101
0.156932 -0.057890 -0.267180
-0.058962 0.151449 0.227554
0.038917 0.330420 -0.307310
-0.002181 0.323451 -0.294408
0.127755 -0.136894 -0.111455
-0.125311 0.049297 -0.057657
-0.091868 0.294797 0.001784
-0.120212 0.026115 -0.058869
0.119902 0.478649 0.137404
0.079667 0.444702 -0.116122
-0.015124 0.310872 0.200029
-0.128229 0.206138 0.113078
-0.217679 -0.315303 -0.113271
-0.080447 0.253068 0.169669
-0.478411 -0.125341 -0.186096
0.311591 -0.135203 0.189443
0.350676 0.333068 0.309551
-0.003098 0.332518 -0.216854
-0.081550 -0.080035 -0.173987
-0.024191 -0.117711 0.001146
0.478437 0.302922 -0.004063
-0.155652 -0.046926 -0.475395
-0.248713 -0.331218 -0.143064
0.410930 0.298669 0.081517
0.289351 -0.123657 0.036982
0.239577 0.196377 -0.334623
0.335532 0.098465 0.443369
-0.205931 -0.010324 -0.353605
0.279093 -0.095983 -0.051991
-0.001446 0.013436 0.253666
0.475127 0.106745 0.169198
0.325306 -0.081587 0.263524
0.232176 -0.177526 0.022711
-0.095565 0.211175 -0.041392
-0.588254 -0.190727 -0.188189
0.271992 0.325469 0.319130
-0.164227 0.058543 -0.329720
0.321545 0.177785 -0.191485
0.188463 0.150785 -0.418355
0.447896 0.288260 -0.191701
0.069573 -0.125962 0.252534
-0.053541 0.061141 0.165412
-0.520329 -0.068551 -0.201876
0.243563 0.313376 -0.252792
-0.160959 0.071826 -0.272454
0.352715 -0.000028 -0.163008
-0.399000 -0.058338 -0.247009
0.407577 0.272369 0.348522
-0.101272 0.229143 -0.015677
-0.325927 -0.379814 0.029809
0.198843 -0.140392 -0.084950
0.461557 0.223558 0.311209
0.373493 -0.062701 -0.079781
0.173283 0.418921 0.160218
-0.033008 0.307730 -0.156410
0.291948 0.379019 -0.070774
0.188808 0.468278 -0.308715
-0.089171 0.238900 -0.364560
-0.041448 0.318267 -0.274483
-0.051068 -0.080898 -0.111429
0.268978 0.276134 -0.259946
0.278707 -0.123078 -0.016423
-0.050471 0.271645 0.188266
0.513735 0.265618 0.062398
-0.041145 -0.105824 0.025702
-0.111209 0.184511 -0.379085
0.165650 -0.211887 0.121682
0.128463 -0.035203 -0.348303
0.222517 -0.153289 0.247451
-0.610363 -0.172700 -0.184496
0.369882 0.334767 0.199659
0.341187 0.189123 0.449166
-0.344026 -0.198186 -0.304902
0.479428 0.179452 -0.044987
-0.295507 -0.300501 0.026659
-0.062608 -0.212286 -0.279004
0.468652 0.240008 0.208376
-0.480730 -0.163607 -0.204918
0.451644 0.312074 -0.086488
-0.276034 -0.378586 -0.034542
0.067568 -0.214313 -0.461731
-0.118265 -0.246359 -0.367288
-0.336636 -0.072306 -0.265723
0.096539 0.225055 0.333167
-0.143561 -0.245311 -0.192909
-0.416503 -0.077274 -0.270014
-0.450252 -0.151333 -0.202395
0.176144 -0.211499 0.115982
0.103584 0.470118 0.140810
-0.033806 0.288384 0.190938
0.147913 -0.053709 -0.450014
0.422740 0.144623 0.418888
0.311907 0.341419 0.311628
-0.153600 0.108055 -0.153168
0.460986 0.056270 -0.031958
0.257946 0.272936 0.374468
-0.187416 -0.152936 -0.252583
0.159057 0.352624 -0.225962
-0.105514 0.194808 -0.058606
-0.110343 -0.247436 -0.398056
-0.055572 -0.079071 0.011042
0.114015 0.469292 0.051406
-0.007850 -0.264202 -0.361642
-0.191031 -0.049735 -0.434505
0.363860 0.339684 -0.080311
-0.249795 -0.365697 -0.089305
0.111383 -0.063770 -0.368237
0.343820 0.251050 -0.152832
0.008699 -0.069959 0.251016
0.154121 0.114464 -0.445870
0.348339 0.351119 0.180729
-0.135590 -0.029825 -0.488748
0.045752 0.460726 -0.083833
0.339023 0.309969 -0.312300
0.413962 -0.024575 0.187858
0.023765 0.452417 0.027142
0.440400 0.173601 0.397928
0.055505 0.121012 -0.476247
0.289258 0.108957 -0.221690
0.472276 0.188676 0.208450
0.357101 0.143517 -0.136990
0.378550 0.312040 -0.249742
0.310064 0.041366 0.343720
0.509674 0.259367 0.061333
-0.487144 -0.188466 -0.279402
-0.187543 -0.012724 -0.278575
-0.322552 -0.361181 -0.008872
0.010268 -0.138432 -0.243664
0.198420 -0.148069 0.255877
-0.001307 -0.151679 0.066479
-0.095590 -0.020265 -0.511410
0.145786 -0.156823 0.243208
0.246886 -0.017752 0.345258
-0.499263 -0.158296 -0.193817
-0.449246 -0.136510 -0.288075
-0.087122 -0.044057 -0.518674
0.019250 0.196540 0.287899
0.281806 0.380906 -0.043396
0.148638 0.488362 -0.155998
0.244938 0.354562 -0.253446
0.125008 -0.035468 -0.419998
0.036604 0.081752 -0.472936
0.418678 0.184561 0.417765
0.010942 0.481061 -0.013995
0.438899 0.137169 0.397758
0.393867 0.252845 0.390058
0.084346 0.496504 0.082858
0.080063 -0.072639 -0.552235
0.031020 0.359347 -0.125971
0.263556 -0.074392 -0.101348
0.055162 -0.109447 -0.210243
-0.140772 0.018126 -0.121139
0.080731 0.455270 -0.133409
0.041504 0.063327 -0.467012
0.119214 -0.070676 -0.377746
0.010524 0.332339 -0.195715
-0.154575 -0.166931 -0.506255
0.064372 -0.164348 0.195695
0.121637 -0.137600 -0.509451
0.190809 0.438743 -0.078046
0.477553 0.239010 0.195622
-0.322120 -0.087978 -0.308956
0.184126 0.478010 -0.270621
0.034865 0.232781 -0.436085
0.450519 0.109457 -0.082426
-0.000531 -0.120894 -0.538986
0.070150 -0.078549 -0.555241
-0.154698 0.098347 -0.309995
0.055900 0.346668 -0.213190
0.117642 0.475491 0.146362
0.100296 -0.157514 -0.523401
0.046304 0.346021 -0.245738
0.180540 0.479864 -0.277788
0.016889 -0.163482 0.058650
0.035697 0.053324 -0.464398
-0.430233 -0.168751 -0.318634
0.453364 -0.004157 0.060613
0.256170 0.429540 -0.105601
-0.120189 -0.241488 -0.291605
0.002041 -0.217124 -0.329105
0.106213 0.119334 -0.460582
-0.124045 0.226727 0.119946
-0.033031 0.317117 -0.014350
-0.111946 0.018319 -0.040768
0.078522 -0.182498 0.168198
-0.259157 -0.122869 -0.260613
0.015466 -0.178186 -0.530782
0.123066 0.298307 -0.354118
0.397867 0.357170 -0.171688
0.050329 0.003563 -0.490272
0.461635 0.076022 0.142190
0.379679 0.372551 -0.261119
-0.062394 0.283274 -0.144234
0.388350 0.326019 0.189650
0.338008 0.241466 -0.149126
0.029484 -0.017207 -0.536613
0.216456 0.004060 -0.297950
0.183224 0.475698 -0.213315
0.052588 0.068544 0.329771
0.318314 0.166283 -0.148915
0.501823 0.280209 -0.049364
0.411948 0.321247 0.202215
-0.220607 -0.317570 -0.109356
-0.438820 -0.193397 -0.259006
0.183481 0.275724 -0.320501
0.083023 0.002133 -0.459637
0.191899 0.282001 -0.290569
-0.141173 0.071382 -0.108549
0.020723 0.034490 -0.461059
0.044721 -0.079827 0.275106
0.262304 0.081808 -0.249214
0.065415 -0.173889 -0.015850
0.490290 0.268221 -0.129548
0.051794 0.167492 0.322178
0.217173 0.410501 -0.026593
0.100393 0.495904 0.062496
-0.058122 -0.079991 0.026692
0.189599 0.468705 -0.165589
0.012710 -0.031697 0.265880
0.485751 0.259248 -0.128022
0.476266 0.062433 0.026985
-0.444646 -0.194532 -0.282774
0.276492 0.421185 -0.201473
0.511998 0.239211 0.105291
0.440645 0.274370 0.275884
-0.364197 -0.081019 -0.232943
0.373777 0.330844 -0.046017
0.054932 0.258675 0.303788
-0.299158 -0.305637 0.004152
-0.165826 0.069241 -0.230075
0.103761 0.029612 -0.438257
0.010082 -0.249188 -0.390828
-0.306935 -0.188384 -0.288003
-0.093067 -0.109285 -0.504416
-0.154941 -0.243631 -0.091561
0.212406 0.283796 -0.255315
-0.379920 -0.175712 -0.238878
-0.061908 0.105131 -0.446259
-0.193788 -0.132079 -0.266360
0.184699 0.083036 0.374408
0.001829 0.404879 0.109714
0.395642 -0.037321 -0.081621
0.229868 0.369519 0.276662
-0.061966 0.296309 -0.163904
0.461518 0.079046 0.154622
0.182186 0.411722 0.120565
0.173918 -0.162091 0.239318
0.214606 0.192571 -0.377194
-0.285083 -0.293959 0.010996
0.236437 0.069387 0.372223
-0.124653 -0.238125 -0.413528
0.169885 0.010934 -0.377545
0.426103 0.297047 -0.014653
0.275492 -0.142620 0.044451
0.195531 0.225938 -0.374020
0.413392 0.078916 0.277659
0.235633 -0.052709 -0.170813
0.232448 -0.188923 0.077549
-0.168943 -0.274967 -0.033494
0.095572 0.398031 -0.215015
-0.003090 -0.261188 -0.366937
-0.356015 -0.141643 -0.224547
0.318409 0.076685 0.408714
-0.416099 -0.094060 -0.271059
0.109077 0.039528 0.355406
0.191720 0.341999 -0.214912
0.116133 -0.152140 -0.412668
0.244896 0.373837 0.269451
0.076681 0.511574 0.018912
0.472233 0.267351 0.188170
0.215387 -0.155078 -0.051876
-0.061255 0.201736 -0.418146
0.022532 -0.017395 -0.535293
-0.244798 -0.229807 -0.110848
0.490636 0.272621 -0.140270
-0.095695 0.059637 -0.461732
-0.093995 -0.256520 -0.372069
0.125189 0.234647 0.339234
0.327298 0.267868 -0.237605
0.321467 0.392666 -0.160361
-0.219083 -0.307889 -0.110766
-0.122988 0.097254 -0.039111
-0.447099 -0.185505 -0.301482
-0.584059 -0.158706 -0.151619
-0.590826 -0.168157 -0.154790
-0.130927 0.085726 -0.065214
0.297865 0.090861 0.398256
0.371841 -0.064856 -0.077947
0.399336 -0.073748 0.120022
-0.077246 -0.088348 -0.514136
-0.375722 -0.197688 -0.285316
-0.450516 -0.102278 -0.196265
0.025078 0.043398 -0.461307
0.071747 0.060171 -0.459676
-0.108124 0.297646 0.035759
0.244161 -0.115391 0.280775
0.161209 0.273730 -0.352420
-0.470310 -0.183346 -0.235702
-0.076536 0.237563 -0.085451
0.162438 -0.062813 -0.235248
0.502539 0.161263 0.012688
-0.189996 0.022792 -0.348777
0.183684 0.021577 0.370365
-0.302469 -0.315937 -0.028341
-0.447292 -0.096024 -0.198838
0.314036 0.362141 -0.022965
-0.232292 -0.270031 -0.213289
-0.012057 0.357940 0.006586
-0.121579 0.162647 0.071763
0.109736 0.043580 -0.441901
0.192426 0.269160 -0.315988
0.167194 -0.066999 -0.211153
0.312564 -0.139521 0.126994
0.033204 -0.136647 -0.067475
-0.043819 -0.216447 -0.501813
0.400339 -0.057829 0.161799
0.206235 0.457650 -0.154737
0.195176 -0.204698 0.054563
-0.073036 0.344051 0.084094
0.206459 0.066179 0.371396
0.267102 0.359425 -0.316233
0.320799 0.097346 0.440185
-0.108988 0.273975 -0.245960
0.029351 -0.174578 -0.309090
-0.218831 -0.202532 -0.158119
0.045188 0.530719 -0.019887
0.211575 0.412127 -0.014713
0.054606 0.127068 -0.476443
-0.139976 0.199141 -0.255981
-0.186246 -0.206822 -0.326410
-0.265334 -0.288454 0.072519
-0.229152 -0.295961 -0.029351
0.320168 -0.070698 0.278618
0.406191 0.045596 0.268481
0.361044 0.334480 0.004593
-0.059987 -0.136493 -0.227259
-0.037843 0.181931 0.240775
0.017297 0.418346 0.104658
0.405147 0.253035 0.378482
0.038091 -0.180378 0.102521
0.087437 0.215480 0.333674
0.121050 0.172294 0.350845
0.041997 0.451962 0.074576
-0.279829 -0.084846 -0.281268
0.064900 -0.170976 -0.528078
-0.062555 0.353100 0.082893
0.216813 -0.202417 0.130259
0.056022 0.357123 -0.083670
-0.055418 -0.070059 -0.058806
-0.544909 -0.189978 -0.236036
0.171787 0.338523 -0.219543
0.024965 0.338670 -0.100004
-0.352568 -0.198564 -0.302512
0.423288 0.294473 0.099689
0.129515 -0.064822 -0.274354
0.146868 -0.101205 -0.486974
0.136934 -0.041929 -0.451014
0.028099 -0.132086 -0.249579
0.123875 0.410257 -0.255518
0.015140 -0.217463 -0.354712
0.153225 0.325693 -0.239974
0.413272 0.308647 0.263077
-0.090314 0.107991 0.063766
0.254520 0.289983 0.345388
-0.241825 -0.148053 -0.273274
-0.019705 0.065710 0.246477
-0.457711 -0.147992 -0.313507
-0.426561 -0.088335 -0.207442
0.203187 -0.001476 -0.307207
-0.089373 0.121489 0.124632
-0.001459 0.360369 0.002561
-0.593922 -0.185756 -0.246069
-0.167318 0.048071 -0.393077
-0.547633 -0.100396 -0.153855
0.130212 -0.019916 -0.375805
0.156210 0.399846 -0.257444
0.266749 -0.170950 0.185228
-0.229036 -0.166652 -0.389941
0.446149 0.241629 -0.149624
-0.521393 -0.156716 -0.182828
0.156749 -0.168029 0.229103
-0.031253 -0.122325 0.052771
-0.200244 -0.087365 -0.428903
0.290630 -0.155683 0.131709
0.286154 -0.144162 0.212358
0.210705 0.400495 0.095409
0.032617 0.289777 0.262437
-0.141178 -0.205682 -0.478985
0.423219 0.240594 -0.154006
0.170687 0.264549 -0.354221
-0.099323 -0.069773 -0.180051
0.384544 0.262788 0.387244
-0.217961 -0.206400 -0.135009
-0.009752 -0.123399 0.168266
0.391636 0.338384 0.107596
-0.210122 -0.279362 -0.222612
0.098754 -0.013240 -0.482390
0.090343 0.030974 -0.443544
0.163494 -0.032685 -0.303709
-0.055663 -0.223521 -0.492227
0.290545 0.419045 -0.229471
0.294138 -0.139761 0.210748
-0.282384 -0.320371 0.062077
0.185504 -0.153932 0.249729
0.201017 0.420740 -0.055273
-0.012282 0.030445 -0.473414
0.172394 -0.069527 0.329418
0.210330 -0.138224 0.265439
-0.182082 -0.163856 -0.215606
0.177119 0.200225 0.368276
-0.012788 0.317283 0.199421
0.033764 -0.106415 0.246246
-0.047875 0.221151 0.217686
0.193619 0.414989 0.038850
0.179620 0.236221 -0.379543
0.084003 0.508050 -0.196566
-0.096357 0.280328 -0.294777
0.335491 0.355927 -0.080333
-0.045690 0.318728 -0.261586
0.114321 -0.079815 -0.249642
-0.111434 -0.005460 -0.084517
0.264381 0.086032 -0.277728
0.388851 0.264745 0.380955
0.040805 -0.224217 -0.478555
0.472016 0.207669 0.282716
-0.196825 -0.146535 -0.268655
0.277722 0.211573 -0.258937
-0.061236 0.056440 0.152313
0.432609 0.120405 0.399392
0.093545 0.418056 -0.213118
-0.336352 -0.359088 0.062559
0.329821 0.166721 0.455550
0.262354 -0.030673 -0.159715
-0.108345 -0.053746 -0.506968
0.448502 0.170171 0.383052
0.325030 0.359306 0.194111
0.018299 0.407983 0.021750
-0.040968 0.259984 0.210591
0.197226 -0.065534 -0.187270
0.013901 -0.241172 -0.364859
0.418622 0.138565 -0.115386
-0.022763 -0.131235 0.057968
0.140879 0.101459 0.373228
-0.476000 -0.186008 -0.287711
0.494697 0.120192 0.053539
0.449852 0.232896 0.333276
0.253557 0.366049 -0.289937
0.358533 0.343930 0.188110
0.448655 -0.002580 0.030803
-0.041687 0.024200 0.195709
0.500524 0.192748 0.067255
0.501787 0.268509 0.007616
-0.159729 -0.271723 -0.055510
0.458979 0.084039 -0.052491
0.297687 0.403904 -0.168862
0.012060 0.217304 0.275136
0.426941 0.030566 0.223975
-0.075438 0.309137 -0.240725
0.252696 0.413411 -0.301478
0.100555 -0.049673 -0.535302
0.083635 0.501941 -0.172876
-0.008740 0.043531 -0.463062
